-0.009439511874971338,0.06501170849517234,-0.3798547870874613,-0.08584578103037323,-0.20074752323247683,-0.9758744457128239,0.0004122548839050485
-0.018816691181667993,0.0763887219502332,-0.3815463810296575,-0.07107267336311424,-0.2185954306228076,-0.9732238759976295,0.0004067289650165546
-0.04679766215810329,0.11719973104795567,-0.3857950895456537,-0.09180813318661228,-0.14070075393723586,-0.9857862671605253,0.00038516994262252977
-0.03765905212737652,0.10289514626618447,-0.3846313935758164,-0.09300935685831173,-0.13799301594450114,-0.9860563812923396,0.0004342857340417912
-0.11273667275087529,0.14766437496819027,-0.3879713634393948,0.2440823335053709,0.1744593109257331,-0.9539327876228447,0.0005648912704012764
-0.10228487300583111,0.1263721033446069,-0.3860932648838871,0.14043904234864305,-0.15034961852520337,-0.9786071058364136,0.0005896142144413368
-0.06697218233867441,0.12187336842631767,-0.3848712680940256,-0.06582920093840594,-0.1426003296864758,-0.9875888123491069,0.00043611440120547583
-0.0758996911912238,0.13809781951525563,-0.38624119233768006,-0.06577805793646352,-0.09235620803580245,-0.9935509941273044,0.0003615742023108656
-0.09935527130230404,0.20374976383152013,-0.3957828031611516,-0.2092843351176769,-0.3171251921991285,-0.9250036105589089,0.0001500983794675242
-0.09178750580394213,0.1915744642228735,-0.39374778548309114,-0.2155336602315744,-0.2750408111555575,-0.936962002167683,0.0003133739026712643
-0.06496271840312211,0.1473134098327209,-0.38852130550290714,-0.12208707833103594,-0.16411761942160993,-0.9788565534847153,0.000408006249412916
-0.07377583002473835,0.1621229783342046,-0.3899376383595161,-0.12114423212280728,-0.16840338757582812,-0.9782455591907181,0.00031841128295426153
-0.009295007056383866,0.15836388068487975,-0.3959878712196448,-0.05002964988725152,-0.2453536899196569,-0.9681418289563611,0.0005274117839932814
-0.019263577119037964,0.17129361030787008,-0.39876020573602194,-0.04904054170700773,-0.24614030697953218,-0.9679927554218083,0.0005439928281559943
-0.04626178770539282,0.14584225680205917,-0.3903329817311234,-0.0931452357835487,-0.1648341830524528,-0.9819132635565414,0.0003916950317481644
-0.037024240312923395,0.1319530291062319,-0.38897669001752444,-0.09916612058794082,-0.15579013504772654,-0.9827998343250517,0.0004469246586136144
-0.13985612583857407,0.17347017425544217,-0.38658925693483975,0.09217194237106387,0.2443491000960266,-0.9652967680054706,0.0007851789631876387
-0.14723625551368383,0.19624723143974257,-0.3839474466423976,-0.2095938724387923,-0.11903458567509585,-0.9705159329188106,0.0004917824632937105
-0.1663122258148527,0.24825243306286782,-0.38687002904321527,-0.5224430686186594,-0.25562181687917573,-0.8134560386325176,0.0004075656795258262
-0.15409370818539203,0.2345180941127766,-0.38883137304821025,-0.25329895494057275,-0.1948610778994846,-0.9475593911443572,0.00036153275685124814
-0.20442529920384098,0.33243069567061984,-0.3800404215392798,-0.5841612431196229,-0.06271287563632422,-0.8092111821189569,0.000413127487351947
-0.20123905787067478,0.34958302896481935,-0.38415657545452436,-0.649729227954927,-0.08668677492514584,-0.7552068149812814,0.00036279975691401353
-0.1866302066202198,0.2983601025238107,-0.38808158389516206,-0.685031810008155,-0.24065493989129427,-0.6876166222415429,0.0003841175683391317
-0.17742418807917645,0.28250779050000263,-0.390353865606953,-0.5248965990345881,-0.24925845778006678,-0.8138512035667365,0.0003684918766429816
-0.17177451955961243,0.3480445834453734,-0.41405358402755765,-0.5937206604512547,-0.1536796552111071,-0.7898596969889785,0.0005351544560132442
-0.16356048512047425,0.33221518567421177,-0.4165532679428263,-0.5383567852129103,-0.17997876957504272,-0.8232737177375905,0.0005185826633498712
-0.17560497045135504,0.3000450252278946,-0.3980046155063544,-0.6479587844720162,-0.2862662594832891,-0.7058335797530417,0.000415272315355982
-0.16587134399178374,0.28513915885453,-0.3998612500783705,-0.5261506422912526,-0.2993219800389518,-0.7959722695433954,0.0003702685144897902
-0.11955641842455787,0.2264276226056301,-0.3985330935863752,-0.3072644051313062,-0.38209100841867377,-0.871547501072033,0.0002284375966065676
-0.11541357955686442,0.2140188296630555,-0.3950918949357895,-0.2544973818284397,-0.30261636571176004,-0.9185066237354391,0.0002329922431368653
-0.1554720439901445,0.2538675851765468,-0.39417184418396406,-0.5121787952748472,-0.3338267639476913,-0.7913485789100898,0.0003880059234263102
-0.14403029052001193,0.2418178788767086,-0.39546171357027177,-0.332278912404649,-0.30593692110266013,-0.8921845799370264,0.0003061529911854939
-0.021156787479138916,0.5036767371502114,-0.4303752031498694,-0.056120439639771806,0.3865371508662081,-0.9205647871034788,0.0006507573844716574
-0.009544308324099507,0.5156133224559727,-0.4259138851757747,-0.04133665017599342,0.3973066675294234,-0.9167544345618905,0.0005457688016974551
-0.06267477378445895,0.46405306340955005,-0.44014363606915663,-0.1709484189816429,0.32697586215845226,-0.929442533787546,0.0007899091441418597
-0.04778343910802577,0.47772504078598343,-0.4377463411562192,-0.14405552591415527,0.3448193777823783,-0.9275492451397768,0.0006934874076497053
-0.01601732364824483,0.37711580876164535,-0.4622950471400626,-0.07923016811804601,0.054780350430842874,-0.9953500357495648,0.0011235543106841164
-0.031369524856700554,0.3925713271446913,-0.46026554048479046,-0.07644993971670229,0.05189288323488122,-0.9957221175543323,0.001069473301431814
-0.055572196620201,0.4368796603092915,-0.4494737976498537,-0.1732693350676929,0.23580903710085474,-0.9562279202924202,0.0008785431995442822
-0.0715499859312851,0.42218292274805364,-0.4499164197959084,-0.19229350609497828,0.22094986488515475,-0.9561403478155979,0.0009688165079968311
-0.14932580331196596,0.378285015754271,-0.4293046144597723,-0.42335193362098905,0.06080413706056099,-0.9039225615149177,0.0007589142393521837
-0.13734338950091196,0.3931723186824538,-0.43384018621459425,-0.4171433329007512,0.0644831834372072,-0.9065502517071277,0.0007013898418546349
-0.09363213214735622,0.4361701886387476,-0.4413447489831886,-0.2655217198325662,0.23335236997446104,-0.935438339883746,0.0007504150059649663
-0.10914348589286321,0.4218783662255389,-0.44011027987859547,-0.2943581384831242,0.21567291376430686,-0.9310416105508732,0.0008335125368122826
-0.10233099156495477,0.4921453570463102,-0.41966061463396964,-0.3004809784303864,0.3824869074354573,-0.8737362000294926,0.0002335659599074596
-0.09065423648097322,0.5022171862727883,-0.41904192981251825,-0.2692458889638688,0.38835234573652283,-0.8812996691460834,0.00020688765826001323
-0.09569470493935846,0.4621218850029756,-0.4330860462540816,-0.261226572257428,0.3201849689896869,-0.9106274010701129,0.0006342065952329747
-0.0807151358875453,0.47530802221254026,-0.43232755548610435,-0.22339197146811757,0.3389184844213754,-0.9139093434258705,0.0005636903338750004
-0.01601732364824483,0.34584046438385957,-0.45997200600785243,-0.07839449357148887,-0.19700312526305538,-0.9772635632285994,0.0011623610338372563
-0.031225658156541203,0.3302114938098957,-0.45564208241918563,-0.0758142371726724,-0.19447251082309935,-0.9779737440116095,0.0010959104622462656
-0.07101852029680533,0.30008418249507507,-0.4411277887176257,-0.18892451179198083,-0.32571392779585384,-0.9264005430071591,0.0010461968483714103
-0.05504061496418883,0.28438791943232694,-0.4386234639410616,-0.17159893702680806,-0.33811312859518255,-0.9253287616208885,0.0009539660276684206
-0.021549317328585782,0.21034558794769664,-0.4125511051831516,-0.060834063022921964,-0.37021435257419555,-0.9269522910723034,0.0007549760848101351
-0.009968570062654098,0.19613353033800376,-0.4075906045659638,-0.05687310857399389,-0.37287328010060683,-0.9261376606682966,0.0006671916617363847
-0.062426197651320715,0.2554541796319332,-0.42590025264571935,-0.1706636735007636,-0.3827559901730938,-0.9079492070230796,0.0008807839835926147
-0.04770306519146498,0.2401770443549316,-0.42199032700429195,-0.15217131950000745,-0.3942714682745087,-0.906307838886043,0.0007924453381321366
-0.10750758228621256,0.22705877974181307,-0.4027034875680105,-0.26982972526952914,-0.3626200086868556,-0.8920194216836957,0.0002936888544599038
-0.095830827202231,0.2152280640843545,-0.40116504204856457,-0.2402686786943295,-0.37428079125755076,-0.8956477272533564,0.0002798283984222475
-0.08136961335173794,0.24380155702668801,-0.4168630454342985,-0.22161120242167812,-0.3907747370423289,-0.8934112042339277,0.0006657867823914172
-0.09634926941970039,0.25859053170617313,-0.4191898572663111,-0.2539744839679039,-0.3737086309167032,-0.892097988267881,0.0007171604141508479
-0.14975015206666983,0.3475570029555189,-0.4271590862721137,-0.4226487450239827,-0.1712627067812967,-0.8899646754762777,0.0007794666463350255
-0.13773583233420952,0.33188423425307906,-0.4295015610109985,-0.3951605259834736,-0.18902861138767404,-0.8989529146631164,0.0007507104035474626
-0.09338375905189966,0.28593941737416634,-0.4307313892542961,-0.25539705349547903,-0.3339130187807761,-0.9073447200235071,0.0008339567448423843
-0.10906314098168551,0.3013389553678358,-0.4315409294965234,-0.2864928740844475,-0.3151504616512169,-0.9047662790024049,0.0009053842192403077
-0.13844501395092243,0.8283377608507335,-0.03432966922862841,-0.500464301538292,0.8439028217811325,0.1932964310990549,0.00012501127732787956
-0.14478065978072208,0.8249255675832446,-0.0351814703140275,-0.45894128301677306,0.867165052755304,0.1933847719516947,7.325435416483064e-05
-0.12383732291579135,0.8358637876028195,-0.03281982301691578,-0.4207665528398441,0.8887325656881049,0.18196135495404842,7.505318955089569e-05
-0.11894237446440194,0.838200751318916,-0.03262119415346997,-0.4483538605006855,0.875188135320975,0.1817265626360852,3.540859683420081e-05
-0.09854636917850486,0.8437912488569629,-0.020897508359638033,-0.3813074478263288,0.8459579629819898,0.37277306112370046,0.00011196541715686887
-0.10482226391912541,0.8387321299372464,-0.015997077890843373,-0.38658077258572593,0.8398787189975719,0.38099743259242697,0.0001521978693616913
-0.11462927399793121,0.8389548912794287,-0.027465835372638924,-0.3804243775609008,0.8946408812112892,0.23429679174689724,4.934522581155932e-05
-0.11015229311696444,0.8415369504826917,-0.029811645730579886,-0.39404422193872124,0.8851417546539675,0.2474938894696255,4.770642136547153e-05
-0.1062623811898737,0.8441401836156154,-0.0517381490609544,-0.3516857093185576,0.934112200368397,-0.06124997129807174,0.0001688001692376103
-0.0993408266215219,0.8472921985967276,-0.04809202737879096,-0.4157018299067407,0.8982837062737782,-0.1424021476496459,8.566705167896413e-05
-0.11046352087759141,0.842511531354739,-0.03601549109958837,-0.4115611851453429,0.908151318438959,0.07667185728376179,4.882815431699955e-05
-0.11527261339501473,0.8406830320043266,-0.03811817833641327,-0.3691848297211963,0.9225799948827224,0.11202104510281696,5.2290614797679294e-05
-0.15641558910227826,0.8201057430740755,-0.046022754343293386,-0.5096260616361178,0.8517940990279573,0.12135934311955687,0.00021907504992497732
-0.1523394626157071,0.8214933606014189,-0.03916347433245007,-0.50113338423607,0.8520471013665036,0.1512648943312438,7.776163192545584e-05
-0.1710290812140287,0.8124805179117991,-0.07907160386514024,-0.5145252650603082,0.856966570648799,0.029530465710118615,0.0006257609396197418
-0.16608569377286794,0.8153349376623398,-0.06498223902594615,-0.5184056164495192,0.8541375838904984,-0.04128685770673253,0.0002823604286057353
-0.10467085581936093,0.8436900200699555,-0.06401693987648989,-0.35197632698866066,0.9315813434523647,-0.09093330397086945,0.00028108482307624233
-0.11675739895573188,0.838553746831202,-0.07076103951105643,-0.3431814918937919,0.9353242335145661,-0.08599442901688846,0.0003044424810879703
-0.15651594772779265,0.8201466406642418,-0.09153434682027463,-0.4394375312915594,0.8961370387900838,-0.061911742027823624,0.0006267127543749084
-0.14088755726149071,0.8279490887172386,-0.0843632009303762,-0.3980992512733172,0.9158761537108723,-0.051844548405815837,0.00036245590615677236
-0.1376937745287194,0.822398908661696,-0.16376729350195332,-0.28337888711943765,0.9552154847518497,-0.08520436623341393,0.0006666598301653424
-0.1263810950133669,0.8273924754156141,-0.15172628881704409,-0.3265646947968353,0.9361998439968172,-0.12994365014337927,0.0006143932008627077
-0.15592771855859275,0.8190473366448789,-0.11454254790247226,-0.4373837940595223,0.8980571038274261,-0.04678520021537838,0.0006743823955790831
-0.16926584397558378,0.8120782132482486,-0.12631409257841367,-0.4286324916684213,0.9026127929856659,-0.039551650088667546,0.000788747318989251
-0.23931094361566577,0.7619804056175586,-0.17332920809359245,-0.6968085792802952,0.7139238155493077,0.06906945368898204,0.0007312473335796411
-0.22821812490418583,0.7717589904209299,-0.15954149923860342,-0.7061321113698693,0.7060614040283493,0.05342972051065363,0.0007764154778519313
-0.19150601151876542,0.7989921446103675,-0.1160470571236951,-0.5813867529709053,0.8135911184354943,-0.007676944237718984,0.000960571735623189
-0.20495116679938308,0.7897121623424277,-0.13162091746977533,-0.5611728599094147,0.8273724862724945,0.023233386760423944,0.0007499367812115055
-0.23533952656207355,0.7588663876883031,-0.06836359957120343,-0.715124607168261,0.6887212624369866,0.11941448358404357,0.0007029657999684801
-0.22505276744684924,0.7676216625760248,-0.05631180488378229,-0.7212623395766924,0.6841661516238859,0.10815412373329955,0.0006295663170297636
-0.1926810195880104,0.7982951452545551,-0.0918127694926193,-0.5825168986031128,0.8128174471115557,-0.0013640061818981377,0.0007920566114592945
-0.2059730264458778,0.7882804566327773,-0.08424981888785145,-0.6135967868002764,0.7889331453009278,0.032916188630538024,0.0006406326639541839
-0.1572506540816306,0.8162793529359664,-0.030881045199969995,-0.5012324606783553,0.8239438428089092,0.2643531052581163,0.00015955440166397805
-0.14969185124664558,0.8197115599177921,-0.02689904118154743,-0.5182885666526102,0.8173615329720135,0.2515891215748865,0.00013272375579824277
-0.16301750434890508,0.7991212185651476,-0.0008546059059445459,-0.5180307799570836,0.7664626098615391,0.37970933449323263,0.0005820217589264726
-0.16073536080686124,0.806512660339665,-0.01232458161383015,-0.5191016739774487,0.7523161492246988,0.40565239268310893,0.00026870668983385314
-0.23077755990863358,0.7555446912160756,-0.03634922703749833,-0.7050939046212331,0.6495977756301792,0.2843682745355162,0.000665450438325738
-0.21866665225046147,0.7637642366780023,-0.025231637728853836,-0.7024418416147353,0.6510256570357434,0.2876474457214553,0.0006108792795414288
-0.18031747504306653,0.7829289634514468,0.005018192324167024,-0.5844653532502856,0.704273286961024,0.402988074418008,0.0006604585604372767
-0.19436362186144662,0.7768865620447544,-0.005005923047117144,-0.5918930651187756,0.7018780321619381,0.3962698921603637,0.0005624518577197385
-0.1939659580591917,0.7375471410584401,0.049152638217102786,-0.6333631119169207,0.5490084301718124,0.545381437219123,0.0004399021741615657
-0.19774042856155774,0.7275272314677048,0.054429036461596116,-0.6546034633983117,0.49599932865311336,0.5705076438423904,0.00020031620992544793
-0.17505792892615235,0.7738438973579166,0.026029546812459375,-0.5637549274992595,0.6759928399669117,0.474567236578521,0.0007676122648943535
-0.18292157833748313,0.7609452034948396,0.034869372391907634,-0.5700246953451573,0.6658019514229562,0.48143494698457867,0.00046558330617992776
-0.12162595250850332,0.7662149014958377,0.083058161728709,-0.41774506727772287,0.6878624891537981,0.5935775052849219,0.0005325030651156418
-0.12990901975941152,0.7721427316392985,0.07045149406264907,-0.4129704990263543,0.6865781434865983,0.5983860123870041,0.0005489136143663773
-0.1545917306131614,0.7854492411887142,0.031164282765908713,-0.46791880252166224,0.7248832934528694,0.5055652332979541,0.0006733019585542919
-0.14581354147279355,0.7814978378494585,0.04530951197294694,-0.4832292362614397,0.7278181329916387,0.48659045460299666,0.000514766468936589
-0.10265440158648236,0.8334656225283891,-0.003817021399368865,-0.37329285314463245,0.8153015909940493,0.44264631650304265,0.00032754887994224634
-0.11344382399077142,0.8252141711450562,0.0024168097346849242,-0.3663150990343688,0.8196404239805931,0.44045751622188717,0.0002994889003965286
-0.14804956645571368,0.8006242775172154,0.013960879693690904,-0.4549124071957175,0.7679663702267012,0.4508684464233697,0.000554314346020647
-0.13471173109255358,0.8100127399179368,0.01095159440172072,-0.4259851176423723,0.7850670291561086,0.44967370312173677,0.0003539272921274091
-0.01649144564034255,0.8465592325658754,0.018390419370064807,-0.0634966451367787,0.8263415909865176,0.5595781903025215,0.00038976600996175396
-0.007902255576232383,0.8527663845485569,0.010234439205194543,-0.06596786625525547,0.8251070971731408,0.5611118594507177,0.000362015092690387
-0.04445663768837327,0.8256167658624376,0.04328360198517885,-0.16773196106238616,0.8305454233747394,0.531093484190346,0.0004602043616064226
-0.03484434074629523,0.8329783320923654,0.03492851436804168,-0.17508204065900212,0.826544548536035,0.5349489586157183,0.00043760642548940873
-0.09029552690821703,0.8330479450117974,0.006411349879681861,-0.32865769861204097,0.8226061116300636,0.4640078687392103,0.00041009495505615645
-0.0797372484018251,0.8408385008577247,0.000610534308801227,-0.3599254346401916,0.8042644463286132,0.47287670895361106,0.0003647103305704604
-0.0609741011573535,0.8287673305743949,0.03142034228788587,-0.26853352399948394,0.8168804802475876,0.5104860698186477,0.0004409905804820586
-0.07107928657439279,0.8208807669104178,0.038910750429529024,-0.25835888578859695,0.822950263638324,0.5059679334816464,0.0004674330089373355
-0.10345132448706261,0.7791695757482912,0.07945569314810601,-0.3394546509954429,0.7094634577780093,0.6176019284257724,0.0005479842203995678
-0.09497232587333658,0.7728281288418722,0.09135639879497674,-0.3369002858396832,0.7086393841522558,0.6199422720136539,0.0005477279350750339
-0.07441621087274602,0.8006257277863703,0.06733611288038797,-0.2527876534861536,0.7930660735865518,0.5542062839511783,0.0005175455445194287
-0.0643840029995779,0.8094320521483419,0.059457032605249815,-0.2614322017712764,0.7876113702955344,0.557961946066408,0.000507164690110245
-0.019286636398599795,0.7833991407114436,0.10321052179659428,-0.05593443870575109,0.738435712550788,0.6720000275269954,0.000569523346343012
-0.009500133125643321,0.7925233640721543,0.09402544514214668,-0.05780668789221171,0.7374283668372541,0.6729470934766512,0.0005553340689458299
-0.04663523201276209,0.8052442549368489,0.07193410421963393,-0.16157750476796676,0.8015199595814824,0.5757242954274698,0.0005165669087452688
-0.03681305211859675,0.8135424049869672,0.06325108174120614,-0.16858837073077443,0.7975575185304268,0.5792063241107879,0.0005022675982148505
-0.009209122117034707,0.8496047977910228,-0.14746423782482343,-0.03682845374578416,0.9777198448603432,-0.20665809919033143,0.0004754354428939027
-0.018096342492462877,0.846916578885626,-0.1588938090340554,-0.03014190428368719,0.9790657418973246,-0.2013001208375053,0.0004581570044040606
-0.036632145544222984,0.8532385921853702,-0.11662078360134669,-0.1332540290243663,0.9781285471367992,-0.1597119564241443,0.0004325318519530386
-0.04611919724208972,0.8503508162442684,-0.12727881162020796,-0.1192451001703127,0.9819355643888491,-0.14691206034129523,0.0004426905855406703
-0.10460568072354277,0.8322697305833145,-0.16299894090372322,-0.23074617423719,0.9641422738838249,-0.1310949228041569,0.0005743173579741889
-0.09465367273463687,0.8366942117208763,-0.15106119538263807,-0.26522754748662153,0.9497778260211627,-0.1660615224931596,0.0005535039026093886
-0.0646543911808048,0.8485782972832326,-0.11759739485021063,-0.21674290186924502,0.9658668542085028,-0.1418581489751981,0.0004524846054248705
-0.07466046520380286,0.8449575553112788,-0.12836738364782496,-0.1983740976561187,0.9721339771573196,-0.12491296103852717,0.0004759033068791905
-0.08071153922004132,0.8513723858369323,-0.06726554278331386,-0.3115575650582697,0.9408326335489899,-0.13328855653893942,0.00023896008171331396
-0.0919528944983592,0.8470830697846008,-0.07240854527094572,-0.29527237428350167,0.9475160777466445,-0.12258673417869638,0.00031793909825461505
-0.07212832426484905,0.8494710829749473,-0.09861311056501025,-0.21784967892550847,0.9687841709285114,-0.11831630297811731,0.0003863070333806687
-0.0617205256859625,0.8529821845987958,-0.09006447002646918,-0.23123434237877108,0.9640871504445032,-0.13063937098920447,0.0003424887374237595
-0.016597141256346717,0.8623277190325341,-0.07622933737011717,-0.04854506956610692,0.9636325155529711,-0.2627846098801731,0.00020589129425593625
-0.007941209805731174,0.8642751404536427,-0.07098478703626394,-0.057859002653399605,0.9591353969573109,-0.27696863742217415,0.00018820399199941064
-0.044759540904051494,0.8549771748481829,-0.09839072629280828,-0.13414080859971977,0.9803437626776632,-0.14468016604640402,0.00035240083086253004
-0.03509776077841059,0.8576819268219449,-0.08986418785618687,-0.1473310259430432,0.976355542674892,-0.1581879359577958,0.0003268057277921425
-0.09030567879230085,0.8517593176474415,-0.05034374427396641,-0.5154151446995905,0.8425986052442052,-0.1561243704705329,9.138744766294878e-05
-0.08351897024996535,0.8545168594184392,-0.053922196397365396,-0.4076803931753785,0.8517801865788872,-0.3290398315888287,7.409861928213596e-05
-0.0784957309891395,0.8609528638737532,-0.04643431172405165,-0.6631351203436241,0.7238502073312929,-0.19050640281442358,6.144134861996477e-05
-0.0736596634654363,0.8635604478141414,-0.05082650987022693,-0.6127258005679518,0.6814794024897501,-0.40019110097624083,5.189261416930704e-05
-0.0875054120920017,0.8504317412631082,-0.02184128551483659,-0.49784478427652135,0.7831426873540088,0.3726098522752787,0.0001824521399099554
-0.083916837089902,0.8557382761006389,-0.028905401541108388,-0.5174471565348921,0.8123654030436027,0.2689068465691409,8.65391962910324e-05
-0.07782704088722951,0.8624567929873143,-0.03918499632670778,-0.6557696614641833,0.7531038259793316,0.052922380884115626,7.785741612165409e-05
-0.074071655926941,0.8654835047134489,-0.044196807466593546,-0.6563467073681303,0.7374032213619688,-0.15951642188817192,6.163253011547175e-05
-0.051514372530363804,0.885618461551476,-0.05165499062761633,-0.6602660165166293,0.7484064229041126,-0.06274243850164463,5.173623852781785e-05
-0.0475957742793905,0.8891629193658858,-0.052403619565340676,-0.7079844573912997,0.6971941986565444,-0.11259776841485708,2.6560789204906528e-05
-0.06567018870223232,0.8720593151152887,-0.04904378101434109,-0.6693215812323098,0.7274887772220995,-0.1508930081633172,6.154109734981948e-05
-0.06112536423020249,0.8764817658760338,-0.049741302467049144,-0.7281153005528064,0.6416852476563486,-0.2410148378027941,5.694685294649368e-05
-0.05154868589856714,0.8771430886106373,-0.064661352472748,-0.6361958411188883,0.28799773929343886,-0.7157598437359409,3.563671742844935e-05
-0.04763310420743588,0.8788747099815067,-0.06749140770148741,-0.6522370786585058,0.3031975145181796,-0.6947359645311422,1.8900464280315404e-05
-0.061159648593022725,0.8727223781728779,-0.05722767886044187,-0.6747412656257719,0.5498191479657315,-0.49236483322021346,4.632783294338465e-05
-0.06569466924556588,0.8704115193015683,-0.05310827634229051,-0.7051626082623069,0.588203990766411,-0.3959315106873513,5.3281045117972035e-05
-0.07908396015833942,0.8506254972221937,-0.014577003339814853,-0.36747162887437984,0.77205392056653,0.5185531271820276,0.0002961670710748675
-0.06841624434152384,0.8581579051585608,-0.017819022024675876,-0.4055152106513976,0.7538026684310849,0.5170483062505171,0.0001956318094399632
-0.04251435022007279,0.8791212557378282,-0.029677466828374816,-0.29719383926025633,0.7196827619109498,0.6274811105634781,0.00016141768463967234
-0.050860591195365484,0.8721924498237023,-0.02557947028294878,-0.28812079895796816,0.725074723535381,0.6255022386034385,0.00018873236430586366
-0.007019476741686068,0.8699807893625833,-0.011612203603899992,-0.06315014460425068,0.7605105778035125,0.6462474141421608,0.00028174776086563975
-0.01492173231791845,0.8636918421995693,-0.004986251596301001,-0.06336923993651616,0.7603833572784955,0.6463756565680302,0.0003124409477317321
-0.03263534878042113,0.8771633923788048,-0.024116786824151287,-0.17309283555016852,0.7171812248702065,0.675048117525612,0.00021598021190246693
-0.024886937756133338,0.883709907343717,-0.029128888017868018,-0.1686499649027897,0.7200485963221531,0.6731175293162291,0.00019172639241048684
-0.0044222187176803105,0.9088981820248415,-0.055707535737729935,-0.07173918738323579,0.836748288331308,0.5428681156305086,9.154616476548375e-05
-0.009579056773049287,0.905817810339978,-0.05163155427807425,-0.07083949192407352,0.8373478165004982,0.542061251691898,0.00010286053046838176
-0.027869851353792052,0.8915906699310746,-0.03846972357954458,-0.17198571172850408,0.7333620438225218,0.6577241273069535,0.00014159956496206258
-0.021222716714917586,0.8971190959492947,-0.04289310251254875,-0.17227501961953487,0.7331590304165221,0.6578747249543747,0.00012805589056074144
-0.04659305818573956,0.8897169221830317,-0.048434464931629916,-0.5655218803107783,0.8096533099356188,0.156992103623267,4.0559679497006644e-05
-0.04160865713288014,0.8940184204962639,-0.051085266892832076,-0.6182539214422644,0.7661014818651845,0.17564341178999704,3.990617391674569e-05
-0.03603173411412248,0.892124368980053,-0.04219740839897578,-0.3332866639374476,0.7364119869930219,0.5887422059394385,0.00010122064141154436
-0.042927821956115435,0.8862014697517187,-0.03841725284152275,-0.3074304561754885,0.7536642196423516,0.5809274986146,0.00011108413959608051
-0.0070412597843916465,0.8693412206653024,-0.06401792605951517,-0.030305191028705755,0.44635691093879293,-0.8943417151480143,6.436064842567821e-05
-0.014982469590122819,0.8670065773798535,-0.06505959638266488,-0.017706745935497155,0.49748427773299964,-0.8672922601734963,7.136790332947491e-05
-0.02494593470535191,0.8730750836313331,-0.06588111584811111,0.07300508125717586,-0.6142322818589738,-0.78574102733213,6.273998298320759e-05
-0.03273039942082883,0.8697136497842632,-0.06409774887379714,0.08185425409123279,-0.5896874596413526,-0.8034728253207424,6.791437766885092e-05
-0.0688061927118751,0.858191841456784,-0.05987679850942443,-0.34855081538450355,0.8171687998948617,-0.4590724143021329,5.9716005984828886e-05
-0.07972123743035574,0.853888892874397,-0.058806267830093545,-0.3732181697409749,0.8008636406989021,-0.46832213996531974,9.612029848025788e-05
-0.042624541670456935,0.869231580317197,-0.06437976821364579,0.003403562688280502,-0.5399809856093055,-0.8416703338846094,4.3765580767307284e-05
-0.05103108483720755,0.8654893057900682,-0.06219867942631065,0.01611976362300463,-0.5038047885012221,-0.8636671166045267,5.112690179400952e-05
-0.04165231023444058,0.8797216671679288,-0.0712675025053069,-0.4706792199305549,-0.16415048230589607,-0.8669000467668151,2.235374040288516e-05
-0.046640569003251864,0.8765194728740594,-0.06832731383694954,-0.39920737124557315,-0.11554618056273014,-0.9095507434445668,2.3194023751610103e-05
-0.036089077756504544,0.8762265185047834,-0.07004924740986482,0.016272688825703614,-0.7024295061302748,-0.7115672761699768,4.876938355280401e-05
-0.04300744173271572,0.872462489940332,-0.06687249083697124,0.05189503099143713,-0.6610814407413275,-0.7485173574913067,5.3154996790666385e-05
-0.004428164821215122,0.8899373630945663,-0.08033731176732843,0.02948184462501647,-0.6414396142592511,-0.7666068367138722,6.815702719494613e-05
-0.009593124383851159,0.8867351688006969,-0.07792490504979759,0.038046386129869145,-0.6306277127071609,-0.7751523466185155,7.579196462599831e-05
-0.02125792924999691,0.8799508096943921,-0.07234061466373339,0.09348057265933372,-0.7486376967722906,-0.6563558345187179,7.176000683381137e-05
-0.02792171297876885,0.8763570427287183,-0.06933989176085333,0.10598917339672348,-0.7325885047096142,-0.6723692273520635,7.713259428252549e-05
-0.0391831979929558,0.8958892677059973,-0.05830969567147901,-0.6562956335246987,0.7402177905894277,-0.14612892907060057,5.1638935092016245e-05
-0.04261137322653106,0.8934644176791179,-0.055054421526542836,-0.660347127664734,0.7392688691636138,-0.13199700780884008,2.578072251430456e-05
-0.026987217546161225,0.9012871695002825,-0.06994268163236776,-0.5889839327016824,0.6984116548991142,-0.40659449986484175,6.0545740866935025e-05
-0.030910195609982122,0.9001936665575391,-0.06613668227857561,-0.5891031979128907,0.698461851909532,-0.4063354078048239,5.142409229908324e-05
-0.003982178050721147,0.9119263440201308,-0.06651415833419531,-0.14201919991491907,0.9869530407708351,0.07585672131544027,6.372365457978915e-05
-0.008404396768401457,0.9110619836038509,-0.06267239534304503,-0.12871331410709538,0.989953181492258,0.058528465082598055,6.864049271958943e-05
-0.019514908763570375,0.9064675309213429,-0.06992556845634074,-0.4308846173692306,0.7882127729590745,-0.43938487804968684,5.587739962559491e-05
-0.015478171587244441,0.9067111761393546,-0.07358044976419936,-0.4424170564157838,0.792160052698454,-0.42041598340355196,5.808993622980946e-05
-0.008413504458693802,0.8947638588418476,-0.08225767116600785,-0.07224457463677328,-0.006819386847734947,-0.9973636334850858,5.4682595006331216e-05
-0.003985339637478681,0.8981603892024644,-0.08269878503214158,-0.09113155085757554,-0.04126044202683511,-0.9949837266820213,5.0555330586904205e-05
-0.015481333174001974,0.9029694817198877,-0.07784699659080001,-0.4217954814066569,0.5130012435905342,-0.7476083840751734,5.3400504364153134e-05
-0.019523668389265558,0.8991726770725371,-0.07830954543504216,-0.4037353639395533,0.5472534255352303,-0.7331517197310204,5.160638584643547e-05
-0.03921060807998211,0.8854328270996575,-0.07183693618626019,-0.6046470020812226,0.2938484029750567,-0.74030744893132,3.8485471343845514e-05
-0.04264484543862459,0.8820769042753761,-0.07043159636984477,-0.5964458438180019,0.3358945092844752,-0.7289905582548881,1.860829288157516e-05
-0.026992815585098875,0.8977340100709438,-0.07406011178446854,-0.5742205693404937,0.5033841108051583,-0.645658713822697,5.576632578625305e-05
-0.030922551903181297,0.8936471515926269,-0.07390748545861402,-0.5583239956280939,0.5428191292682577,-0.6273927867025018,4.67667555467341e-05
0.28844838301202597,0.3354104186761379,-0.3358051819400832,0.6657084017578032,-0.04641192564247671,-0.7447672502112512,0.0007306737617835258
0.28027524616305405,0.35225413469418915,-0.3441401688267344,0.6644334680106025,-0.045779002104541,-0.7459439989394083,0.0006942594124820506
0.2588202543402985,0.28233433830908466,-0.35231272556804444,0.475504242474999,-0.06533879022594379,-0.8772836245366076,0.0008262478705040751
0.26822553986321584,0.2996189361502049,-0.34855826878001506,0.4707617636037792,-0.0684482322626408,-0.8796011604294182,0.0007020318515424676
0.29625547192631824,0.183362750214383,-0.33791358323737813,0.7476394678966868,0.2229724540232533,-0.6255545626002637,0.0016882371827013501
0.28407292097189746,0.20402299454029052,-0.3432639162033848,0.6750616272184241,0.3427489087222642,-0.6533107874717135,0.0008284745844118289
0.254176782560357,0.23428054002521512,-0.355434574950736,0.473469907057104,0.05257665849403491,-0.8792394111349531,0.0009491028967623143
0.26664097578464624,0.24960321375367844,-0.3477971675275591,0.4741055293665298,0.05303942400169551,-0.8788690269463653,0.0007845362554339336
0.1844533526188168,0.1993139705945506,-0.3846084793231701,0.06863833069038644,0.4994095411051866,-0.8636428022123175,0.0006314478507550286
0.16070664547759556,0.17638144455685215,-0.39057082587251585,-0.3018457427099021,0.35917265034117835,-0.8831104997987519,0.001193722565892297
0.2353067504791743,0.24940191639498774,-0.36298148557865145,0.33648531209738636,0.08837060606253268,-0.9375330771374762,0.0006920898720886052
0.21974507239399466,0.23218113039668012,-0.36899343133309254,0.2613494664364384,0.05117159173727084,-0.9638868837122243,0.0009169905646571783
0.22140214993030582,0.33259892689258036,-0.3718127545700862,0.3759341204504468,-0.06520550570057052,-0.9243493815151725,0.000570164756710317
0.21514423852720518,0.3499569083529351,-0.3755750428115517,0.37497699920783023,-0.06482251179567801,-0.9247649928655334,0.0005135354605042763
0.23167701683846045,0.281156719755361,-0.3641155960577302,0.34741127887511775,-0.06624985408681652,-0.935369638241391,0.0007954719628758258
0.24272632747529546,0.2987664679409946,-0.3610842434703001,0.36530872334918807,-0.05784748819033728,-0.929087296627747,0.0006456714507504492
0.2740164645984605,0.40307359625632366,-0.348238049350628,0.636286454931811,0.0594256596197205,-0.7691606712833604,0.0007096122273725427
0.2834292915209829,0.386664670930891,-0.3413559421032877,0.6612149801766418,0.04713889577968402,-0.7487140138228183,0.0006658201217531192
0.23883380506372606,0.4511709026148382,-0.3667417434433002,0.4153286270333363,0.01843099562195103,-0.9094847057356091,0.0007810137602963843
0.25229259287439915,0.4354134381937562,-0.360696441498298,0.4350752146562781,0.01110482336205708,-0.9003256302526832,0.0006524805622717726
0.206999236899837,0.4016308685010966,-0.3792459640962627,0.35875169197893486,0.021331837054187345,-0.9331892499542337,0.0005340156152598166
0.21750875735724348,0.3847584371537797,-0.3754833858009663,0.37319726465659536,0.019330466169093792,-0.9275506103337545,0.0005079109904034079
0.21101880288936972,0.45154594221827776,-0.37711609881547625,0.29087642952565146,-0.00498310747957775,-0.9567476529295776,0.0007442300613351527
0.22611204403753862,0.43522084244999454,-0.3720482782808309,0.33322870146164774,-0.013014337955666123,-0.9427562036548789,0.0006043835189212536
0.14829669231969708,0.5274086515460534,-0.40474691680716895,0.032994800526408755,-0.5714907307832215,-0.8199449297160645,0.0005930018311725109
0.12230873922659828,0.5483038394750437,-0.4109891653033974,-0.3427933253562433,-0.4797702494385094,-0.8076591136394854,0.0011603422377475232
0.20784619408625896,0.4813202580208123,-0.38075743460942874,0.27782480869932136,-0.18010117386596725,-0.9435978713643254,0.0006394739421682912
0.18873686759452898,0.4971360232619186,-0.38794989945590325,0.1832038993455425,-0.15508521950993195,-0.9707651136882415,0.0008522313924835515
0.26133937186224193,0.5410379910093347,-0.36911322356528165,0.6790603043294403,-0.27160955443641366,-0.6819863290586262,0.0014517652468315778
0.25089366324764806,0.5228463948387824,-0.3709150379632451,0.6135264836694404,-0.3817179494565465,-0.6912862365900981,0.0007527732354026854
0.22440826783444187,0.4952674964828328,-0.37675092104228963,0.39504195201837966,-0.11964103254863143,-0.9108391073489354,0.0008829565884667792
0.24030263766374002,0.4814432408451421,-0.36780305041080635,0.41274910931203823,-0.12846546138283654,-0.9017398726871372,0.0007163920180659508
0.28691863910750903,-0.07946494586531383,-0.26916386400639225,0.49057379915085103,-0.86659646725712,0.09136690059414192,0.001632401306714945
0.27070927081778134,-0.08731812433334668,-0.24746957777308945,0.538009333897977,-0.8409271004258702,0.05820282130613203,0.0015972617854305652
0.21981816595939818,-0.10635548846961392,-0.21521994257708743,0.23934697124408066,-0.9607474586379485,-0.1402759711319388,0.0013308702369888615
0.23376250388310904,-0.10322290709517652,-0.19441989230465415,0.35309215605338945,-0.9353410493518189,0.021518613593987605,0.0014119041679679035
0.2605991544856156,-0.07466545412969548,-0.09901564727162544,0.6867231405212746,-0.6983675134603965,0.20172789696950894,0.000997391085360454
0.25012153994961545,-0.08754233594468373,-0.1133576780029744,0.6570378711952651,-0.7456283250580862,0.11108391731599666,0.0009721928019850646
0.21378707665211327,-0.11241964391362898,-0.16637168685020082,0.38302030877466026,-0.9153209429792277,-0.1244307615092883,0.0011160460484639194
0.2269476891245529,-0.10691558241721011,-0.1474732294935834,0.4676218122217547,-0.8825636646359669,0.04910416070736386,0.0011783844927907203
0.12205291174768589,-0.14959526332093376,-0.1605224612949319,0.3291733213045173,-0.8835634110423266,-0.33310752499546065,0.0008948377998549322
0.13623683413577506,-0.1495827910062022,-0.14171624105656178,0.3975790050518546,-0.893556399158351,-0.20853751764404235,0.0008425315847413944
0.18132599221333678,-0.12623113718275725,-0.16257662252583613,0.36866094238876446,-0.920840989058735,-0.12704716614847678,0.0010937391175368735
0.16655036001007614,-0.12640894018113966,-0.18200529828546017,0.26258527971420115,-0.9039743452827198,-0.33746015164474324,0.001085197547216136
0.11888436369820866,-0.08589483018479444,-0.2910008567245305,-0.33004110579941026,-0.8197742116894262,-0.46802041657569,0.0017789649034034355
0.1364392917097896,-0.09911516474103003,-0.2691128145321421,-0.08227867815799132,-0.9708167371860437,-0.2252666906580237,0.001432157239072462
0.18506710652514177,-0.11573002828644878,-0.20660041288225817,0.20993730310282022,-0.9669936851780148,-0.14439370343528504,0.0013185422178586227
0.16912980872886055,-0.11236076298594279,-0.22715536766752487,0.054116987163358256,-0.9267855799499464,-0.3716716837441379,0.0013117796019887513
0.2571185085140186,-0.0238180400798708,0.020212308393669425,0.7443694310320783,-0.5100158168636394,0.4310429406612463,0.000788855120259967
0.24754093101550714,-0.042916364829792254,0.01224011503771442,0.7218607500831462,-0.565428336830218,0.39900858812663575,0.0009245163319403287
0.2115980403898097,-0.09517182489827529,-0.018285474993482844,0.5868840952512397,-0.750971380382747,0.30266986071818464,0.000918329668100408
0.2246994818807321,-0.07892524270203459,-0.006524175018851181,0.6237723343045695,-0.6937520234759647,0.36002250607320796,0.0007698097998415811
0.14455093714659664,-0.12876823804222057,0.02564058752567171,0.5412839269834874,-0.8154120589266423,0.2052191135015177,0.0013375669160386539
0.15909336606976032,-0.11154687193625101,0.04205110524663632,0.6822026566806552,-0.6754383233797513,0.27996893850533927,0.0013003749092761671
0.1886199759006495,-0.1080378006892192,-0.00688331387127719,0.5656160518926356,-0.7635580833964148,0.31154058342594926,0.0009013783879837496
0.1742393970151651,-0.1227284471200067,-0.021905561443778743,0.49899574618367687,-0.831660792355547,0.2436053606740606,0.0010412373239834726
0.12473416936113953,-0.15787136927989875,-0.12029199493988872,0.3590221873813701,-0.9284444624976741,-0.0953621991425396,0.0009044777449961229
0.1392826894147535,-0.15296945953656618,-0.10091869045659617,0.41309413412409074,-0.9105921219065837,-0.013237215490172432,0.0008242351851409195
0.18356288735774987,-0.12396581676290946,-0.04692931759197894,0.5080189373179349,-0.8354746625836095,0.20952051810541153,0.0008184153358137393
0.16878319440085568,-0.13567093911155956,-0.06375484723482862,0.46388140296569086,-0.8752054476450495,0.13722051011059128,0.0009509093636250679
0.25735606260158,-0.06897781756365794,-0.06588784509698951,0.7150750757378407,-0.6668213021318152,0.2098022570940356,0.0007876910670234867
0.2459639083365427,-0.08378065681626325,-0.07770919201570785,0.6980882359578249,-0.701012187665267,0.14579001187341006,0.0008492116259290546
0.2082630014413577,-0.10907300281193837,-0.05298938327697738,0.5721756155085983,-0.7976116510839714,0.19086832914985605,0.0008681600123514948
0.22191757558793315,-0.09496965737809167,-0.039367788250982826,0.5987235875466188,-0.7584132551984624,0.25756436099464164,0.0007351200029879081
0.25829641712157314,0.7733847421434966,-0.329353514577897,0.5433198489493047,0.8303055972115925,0.12408125151208683,0.0011842993425929065
0.24491420352227522,0.7800849856388211,-0.311333050167615,0.5734501247620569,0.813959023728443,0.09287444267085215,0.001144787228930438
0.20094726371672253,0.7947921651379737,-0.26404122329769414,0.37229657963371726,0.9280914615701843,-0.006441719766820412,0.000937972055884561
0.2158699532122832,0.7903305571100482,-0.27869126219214635,0.28571611709748396,0.9533367270623541,0.09754683626225628,0.000997754774676632
0.09928937107190845,0.7961182912531521,-0.32284992757996783,-0.2886136307051083,0.9283497687988098,-0.23424107014443837,0.0016022195758400263
0.11931857428316539,0.802650883634178,-0.3058693061537004,-0.030636036782910176,0.9978057975309562,-0.05869432394915664,0.0012058258300449358
0.1553737157414469,0.8046937327656746,-0.27599405161798957,0.06787954398993816,0.9883195538088927,-0.1364434940431729,0.0010714365062094056
0.17243381191739907,0.8034018330025501,-0.2625866033353976,0.20415705775313775,0.9789372805090463,-0.0013025356558293464,0.000948436136161404
0.13592328594450034,0.8179805186545845,-0.19880550622886647,0.21176085987562532,0.9701106026539432,-0.11850213855934877,0.0006727453295714376
0.12490298069076196,0.8227362412671101,-0.18692026045118623,0.2754036315075768,0.9404976706837107,-0.19904012457530598,0.0006318218783653715
0.172745619785688,0.8036051607380575,-0.23649568113230568,0.20332641133709997,0.9789021098261671,-0.02022448591819107,0.0008178476878145215
0.15952148552426673,0.8081476937848228,-0.22371677950141788,0.298772057877005,0.942291898091608,-0.15106699249953304,0.0007659252527798206
0.24353992847115627,0.7630037155332082,-0.20753032546433656,0.6624004341563985,0.7333855573132306,0.15287671226768607,0.0006877967790548538
0.23175330099600466,0.7719208404586091,-0.19493473785461957,0.6974579834079659,0.7097658280115364,0.0989183035013822,0.0007007104597125555
0.19983490727496633,0.7943878300976065,-0.22608100827762523,0.456524580200069,0.8895629210515233,-0.016220886641358335,0.0007619963458551972
0.2137252951861174,0.7885789220248419,-0.23898637337881437,0.37572750030949986,0.9221231379572251,0.09229173286429916,0.0007933485343392404
0.3169363100742244,-0.04281026313842474,-0.27255082259058716,0.8765553375163266,-0.4683304526557612,0.1109834554647163,0.0016533699866789972
0.3063586269665408,-0.05631409630904693,-0.24829304059920312,0.8687009326470343,-0.48012524534689327,0.12181312900815881,0.001692129822881754
0.3195726093438782,-0.006204657519735185,-0.19731724002217774,0.9628780027093748,-0.2202186158062756,0.1561080175736445,0.0015957325279622862
0.32608257752608866,0.011020827350634097,-0.2196893820584491,0.9787202504573248,-0.1803890401720152,0.09780831013043077,0.0015090775122086207
0.32293839399841257,0.1326276943170598,-0.3054849848276699,0.949203128153785,0.21286916459499516,-0.23173290717482953,0.0020255709707079216
0.3295507511829541,0.11078519057613317,-0.2812419955816651,0.9968278721820758,0.07234769795494683,-0.03316630581742651,0.0019215485032956473
0.3302471704311046,0.05044242058726119,-0.21205777571189147,0.9932316199162742,-0.06941608348069274,0.0931254882011132,0.0016364952404773658
0.33198198239411475,0.07008077626129086,-0.23470401861842607,0.9998357889773597,-0.010568751284105242,-0.01472061738907385,0.0015386306989093512
0.33232337575316223,0.11661846317069895,-0.14919875973400265,0.995327378098835,-0.07982502710028451,0.05432656307311957,0.0010798039190193774
0.33411010735191543,0.1355476662333988,-0.16801629207178045,0.9977645146632519,-0.06584983379319621,-0.011391780730578283,0.001086011874132773
0.33024107930065427,0.0724450340428813,-0.1867659518131121,0.9955560415895492,-0.08751710412014113,0.03476959218875346,0.0012782513429357696
0.32657189833892897,0.05368687572430233,-0.16609932630292334,0.9848475597558541,-0.11958656679870179,0.12559592781710238,0.0013485248976289142
0.2819607489747999,-0.04644872739945068,-0.09969901409738234,0.8590050678587424,-0.4688564320003355,0.20563059005146134,0.001036327530809464
0.29311911985207834,-0.03252950813750148,-0.1143969408793271,0.8576596057930791,-0.47000655280597453,0.2085997145499121,0.000998570600160217
0.3200680212871689,0.014458777398312939,-0.16901900816543136,0.9648203361288022,-0.22666210171242115,0.13321415330066527,0.0012597535536625543
0.31253416308164694,-0.0022909321731221163,-0.1492286352785922,0.9492947906087639,-0.2517628413237717,0.18829464212144897,0.00133044116779515
0.3046705136703162,0.33713710913188105,-0.31196768794976953,0.8811507484916703,0.021192786718336354,-0.4723602695228294,0.0007924263912545255
0.2983438595092765,0.3537899697291564,-0.3233433091464417,0.888597685592727,0.015085073937550484,-0.45843930209303346,0.0007718896416268514
0.3208221612476816,0.2858054125042599,-0.2714903857845739,0.963751635766888,0.043967215768454804,-0.2631533174676269,0.0009677399182674971
0.31598000259352804,0.30321792408483633,-0.2862088773831342,0.9630406636641171,0.045006041002775284,-0.2655694568331102,0.000920912631765659
0.3245374607685305,0.3429051196144794,-0.20731452541409753,0.9921725300935369,0.10856423492763646,-0.061704760127290495,0.0010378146477009699
0.321742792107169,0.3598819703409443,-0.22263864941171566,0.9923263940610197,0.1078479533391422,-0.060474346713394765,0.0010556733813519659
0.32369369417424915,0.30490632743489193,-0.2516553446077659,0.9879715088961424,0.07325462581883511,-0.13618391023032883,0.0010165292492706594
0.32720740628257644,0.2873644518457044,-0.235698033097148,0.9877843447358481,0.07374521708980374,-0.13727247084229535,0.0010131497114361403
0.3357106243911882,0.17573636483678282,-0.16927164505220313,0.9998009097454783,-0.013138578863915349,-0.015017277301511213,0.0010304199651879615
0.3353045490278352,0.19440916031290834,-0.187008726869631,0.99886131076624,-0.0035330908020661466,-0.047577296305416586,0.0010654846962947747
0.3289175636699545,0.2499915958333425,-0.23951978237396165,0.9896291148410596,0.04516748395247801,-0.13636023413115445,0.0010452752252481797
0.33182999418668835,0.23168774883020624,-0.22244141280665852,0.9927514358476812,0.03656920262982991,-0.1144870300138206,0.0010711904137657839
0.3145581587141306,0.1739429619999174,-0.3055914345836346,0.956961047405586,0.1693538086716331,-0.23567953079725845,0.0017561158000565494
0.3177777562378579,0.19253947331849877,-0.28975275508988196,0.9041470524775823,0.001621301308630801,-0.4272183035383274,0.001146541046701351
0.32590767506601587,0.2305959862104486,-0.2600347097305549,0.9763803345462413,0.024811048452230366,-0.21462957435095145,0.0011241851205885133
0.32132598475207025,0.24886792729217855,-0.2760480016305493,0.9635742451814875,0.047237312518243216,-0.26323622533568664,0.0009879866245285057
0.31686292645498987,0.3497222548036833,-0.06571105728701548,0.967595811307936,0.11267401679663687,0.22597104212320723,0.0010325419571555353
0.31218406810767046,0.3681807004987246,-0.05406815148510769,0.9716995130165508,0.10172427794014759,0.21319528062542492,0.00101562416106366
0.3269144519133004,0.3113487130744872,-0.10062811452873399,0.9858586564673784,0.1174234374411771,0.11955938193146463,0.0010537234741364637
0.32715867723897407,0.2943373459421373,-0.08637518833425793,0.9856087870488627,0.1148275510863204,0.12405624693496059,0.0010003548234089699
0.32774342576220233,0.19090995089612942,-0.04754037399767591,0.967764366375452,0.03899121802939256,0.2488208513981582,0.0010156871622529116
0.32462679734846817,0.21122474110935593,-0.03871954694415596,0.9671953760683061,0.04099114660118775,0.25070466771164823,0.0009985320671733289
0.3318691514538688,0.2571634668578183,-0.09409378182472238,0.9883535131446365,0.08368724358205015,0.12709751498866342,0.0010355332668498718
0.33144277232234814,0.24028146373407946,-0.07955654486513301,0.988458760934305,0.0842862206488479,0.12587736468862185,0.0009607970581439888
0.3363658559953413,0.19635484141103113,-0.1518539125026693,0.99954237505054,-0.016276780314463085,-0.02549719398130915,0.001012770245721861
0.3363748476641013,0.17798805272657517,-0.13530286080006315,0.9997036984861583,-0.019423012773794254,-0.014671803157262386,0.000940018688474408
0.33443960850389326,0.25459068937714613,-0.12988668561442712,0.9971097263221773,0.0666235522056255,0.03651706402789023,0.0010323388225541787
0.33512442559880506,0.2368843532658007,-0.11475776784504933,0.9971313264465933,0.0688435360385638,0.03145926516250031,0.0009546660130263075
0.3235269132214435,0.36161678230395444,-0.18329458756410597,0.9932321057407174,0.1127952608420283,-0.027698614720578735,0.001065560571164496
