0.8252131124978672,0.5671607687395289,2.9629629629629632,0.8314695294639559,0.5555701776686239,0.0004463835137763218,0.0019867892942400647
0.9147765476888926,0.4072780086713817,2.087542087542088,0.9081431022344939,0.4186597045337166,-0.0003970688236386378,0.0019868339893224637
0.9038026515925504,0.4310981962768948,2.1043771043771042,0.9081431022344945,0.4186597045337155,-0.0003970688236405445,0.001986873783422632
0.914799319242804,0.40728850650152415,2.1548821548821544,0.9081431189444342,0.4186597122371016,-0.00034765417065598644,0.001986908588643394
0.9038138311390713,0.43110389254036097,2.138047138047138,0.9081431189444336,0.4186597122371029,-0.0003476541706582791,0.001986873746863939
0.9348337419009226,0.35885565838154765,2.087542087542088,0.9381912619631463,0.34611702979245096,-0.00039706882363863406,0.001986833989322464
0.9439174417401565,0.3342525258507934,2.1043771043771042,0.9381912619631458,0.34611702979245185,-0.0003970688236402168,0.0019868737834226333
0.9439293747398363,0.3342564031174245,2.138047138047138,0.9381912792259748,0.34611703616104567,-0.0003476541706553323,0.0019868737468639397
0.934857266907993,0.35886433721485494,2.1548821548821544,0.938191279225975,0.3461170361610454,-0.00034765417065598536,0.001986908588643396
0.9147184240778938,0.4072525853211936,1.952861952861953,0.9081430391210157,0.418659675438004,-0.0005446633736439923,0.001986739723550939
0.9037309126991021,0.4310644381069159,1.9360269360269362,0.9081430391210159,0.4186596754380036,-0.000544663373643111,0.0019866851375684325
0.9147346161080822,0.4072592922797,1.9865319865319868,0.9081430623026808,0.418659686124898,-0.0004955858260332946,0.0019867396728365425
0.903762720622954,0.4310791017606604,2.0033670033670035,0.9081430623026816,0.4186596861248963,-0.0004955858260363738,0.001986789340280984
0.879982858545144,0.4777846662486649,2.0370370370370376,0.8724959201467818,0.48862119281604954,-0.0004463835137750796,0.0019867892942400447
0.8671748778892084,0.5006703410945404,2.053872053872054,0.8724959201467823,0.48862119281604843,-0.0004463835137769906,0.0019868340306432595
0.8252131124978672,0.5671607687395289,2.037037037037037,0.8314695294639559,0.555570177668624,-0.0004463835137763891,0.001986789294240046
0.8397896965573532,0.5453588954532562,2.053872053872054,0.8314695294639557,0.5555701776686243,-0.00044638351377702365,0.001986834030643265
0.9148490670835393,0.40731053554612195,2.4074074074074074,0.908143169328071,0.4186597354642771,-9.95175763307931e-05,0.0019870081392590103
0.9038667531714858,0.43112901422431804,2.3905723905723906,0.9081431693280709,0.4186597354642773,-9.951757633123879e-05,0.0019869981656434033
0.9148513907464765,0.407311498038825,2.441077441077441,0.9081431727005459,0.4186597370190093,-4.976505239715734e-05,0.0019870081318800518
0.9038713178179757,0.4311311185551731,2.457912457912458,0.9081431727005456,0.4186597370190099,-4.976505239616389e-05,0.0019870131193156153
0.880070246827272,0.4778322875697918,2.3905723905723906,0.872496002752306,0.4886212390773654,-9.95175763312509e-05,0.001986998165643408
0.8672559349500055,0.5007173166612898,2.407407407407407,0.8724960027523061,0.4886212390773651,-9.951757633155693e-05,0.001987008139259012
0.8800746322985843,0.47783474355173294,2.457912457912458,0.8724960059924017,0.4886212408919064,-4.976505239614717e-05,0.001987013119315618
0.867258079437765,0.500718630805079,2.441077441077441,0.872496005992402,0.488621240891906,-4.9765052395411254e-05,0.001987008131880054
0.8800076366213281,0.4777985426380682,2.1043771043771042,0.8724959382923413,0.48862120297804956,-0.0003970688236405441,0.001986873783422633
0.8671869943248883,0.5006777660558744,2.087542087542088,0.8724959382923413,0.48862120297804973,-0.0003970688236407571,0.0019868339893224615
0.8672088720314385,0.5006900181602383,2.1548821548821544,0.8724959543463682,0.4886212119687377,-0.00034765417065666195,0.001986908588643396
0.8800188161678489,0.47780423890153445,2.138047138047138,0.8724959543463686,0.4886212119687368,-0.00034765417065816975,0.0019868737468639406
0.8252896821926803,0.5672132353300722,2.34006734006734,0.8314696030424344,0.5555702268321914,-0.00014924504650963344,0.0019869832206484053
0.8398634212261938,0.5454066159666692,2.356902356902357,0.8314696030424344,0.5555702268321911,-0.00014924504650919062,0.0019869981779333224
0.9036122743111603,0.4310079447984673,1.7340067340067338,0.9081429255252155,0.4186596230696213,-0.0007394793475185811,0.0019864181500761106
0.9146013412771509,0.40720055156827484,1.7508417508417506,0.9081429255252152,0.4186596230696221,-0.0007394793475199351,0.0019864922604693933
0.9146236078234864,0.4072097746737542,1.7845117845117844,0.9081429569994071,0.41865963757942326,-0.0006910240510312087,0.0019864921916220753
0.9036560151269842,0.4310281095907604,1.8013468013468013,0.9081429569994072,0.4186596375794232,-0.0006910240510312816,0.0019865614458356123
0.8670213464672111,0.5005815492341434,1.7508417508417506,0.8724957685193967,0.48862110790063307,-0.0007394793475182965,0.001986492260469394
0.87982272068314,0.47769757267009777,1.7340067340067338,0.8724957685193966,0.48862110790063273,-0.0007394793475186328,0.0019864181500761162
0.8670418960638401,0.5005941420431538,1.7845117845117844,0.8724957987581382,0.4886211248351419,-0.0006910240510322993,0.0019864921916220774
0.8798647445492577,0.4777211071659219,1.8013468013468013,0.8724957987581384,0.4886211248351414,-0.0006910240510313364,0.0019865614458356136
0.9146836190363706,0.40723653997727755,1.8855218855218856,0.9081430138259176,0.4186596637768038,-0.0005936038012794427,0.001986625702125653
0.9037138253899801,0.43105573168805494,1.9023569023569025,0.9081430138259176,0.4186596637768035,-0.0005936038012798938,0.001986685192904884
0.9146643800621006,0.4072285709332087,1.8518518518518519,0.9081429864428568,0.41865965115303994,-0.000642394788134703,0.0019866257620279695
0.9036760319927687,0.43103830869329673,1.835016835016835,0.9081429864428571,0.4186596511530396,-0.0006423947881340887,0.0019865613814280744
0.8657482231598044,0.49984597191354796,0.5892255892255892,0.8724946269864707,0.4886204686114766,-0.0017786325196837924,0.001983612152692887
0.878515405044098,0.47698724694863365,0.5723905723905726,0.8724946269864712,0.4886204686114761,-0.0017786325196848848,0.001983433898221142
0.913257923619669,0.406602934677615,0.5892255892255893,0.9081417373532049,0.4186590753148227,-0.00177863251968281,0.0019836121526928857
0.9022691878782337,0.43036782321287087,0.5723905723905726,0.9081417373532045,0.4186590753148239,-0.0017786325196848505,0.001983433898221139
0.9333372924000406,0.3582818480110239,0.6228956228956228,0.9381899198983872,0.3461165346786238,-0.001737418521511922,0.0019836120089693115
0.9424277358782224,0.33372563032997987,0.6397306397306396,0.9381899198983874,0.3461165346786233,-0.0017374185215110988,0.0019837861329507654
0.9424827472866282,0.3337435046200885,0.6734006734006733,0.9381899869777408,0.34611655942550323,-0.0016957671298952824,0.001983785991112681
0.9334457432344007,0.3583218576361282,0.6902356902356903,0.9381899869777409,0.3461165594255025,-0.0016957671298964366,0.001983955940769828
0.9133126528950033,0.4066256042857173,0.6228956228956228,0.908141803153057,0.41865910564897,-0.001737418521512086,0.0019836120089693084
0.9023766990798593,0.4304173865556919,0.6397306397306396,0.9081418031530569,0.4186591056489697,-0.0017374185215125227,0.0019837861329507628
0.9134176302926287,0.40667399952889477,0.6902356902356903,0.9081418680840099,0.4186591355825481,-0.0016957671298964382,0.0019839559407698257
0.9024282370515304,0.4304436464638736,0.6734006734006733,0.9081418680840093,0.4186591355825487,-0.0016957671298976904,0.001983785991112677
0.9426408677939945,0.33379953652334154,0.7744107744107743,0.9381901181742959,0.34611660782646725,-0.0016111942156177633,0.0019841213958715254
0.9336010136700031,0.35838150138206365,0.7912457912457914,0.9381901181742957,0.3461166078264672,-0.0016111942156178194,0.0019842828695922562
0.9334978793578852,0.358343453125565,0.7239057239057239,0.9381900530919012,0.3461165838163039,-0.0016536888302830025,0.001983955800960629
0.9425885531779009,0.3337825384741719,0.7407407407407408,0.9381900530919007,0.34611658381630417,-0.0016536888302835333,0.0019841215335103246
0.8384579997043119,0.5444929446105591,0.6228956228956228,0.8314683573549012,0.5555693944903943,-0.0017374185215120958,0.0019836120089693097
0.8239348308960502,0.5662810504758143,0.6397306397306396,0.8314683573549019,0.5555693944903934,-0.0017374185215138325,0.0019837861329507645
0.8239816263950793,0.5663150493959783,0.6734006734006733,0.8314684168038029,0.5555694342128792,-0.0016957671298956113,0.00198378599111268
0.8385541139719956,0.5445571661110246,0.6902356902356903,0.8314684168038026,0.5555694342128799,-0.001695767129896961,0.0019839559407698296
0.8657987323189252,0.4998769239660654,0.6228956228956228,0.8724946902034941,0.4886205040147108,-0.0017374185215121593,0.0019836120089693115
0.8786186961295099,0.47704509273586987,0.6397306397306396,0.8724946902034939,0.488620504014711,-0.0017374185215126296,0.001983786132950765
0.8658995890592509,0.4999334064545488,0.6902356902356903,0.872494752585724,0.4886205389504389,-0.001695767129897005,0.001983955940769827
0.8786702341011811,0.4770713526440516,0.6734006734006733,0.8724947525857242,0.4886205389504385,-0.0016957671298976878,0.0019837859911126803
0.9137604674206775,0.40682510455498117,0.9259259259259257,0.908142177451236,0.41865927820279253,-0.0014813199669087339,0.001984592480518282
0.9028152462197321,0.430626691142216,0.9427609427609428,0.9081421774512354,0.4186592782027943,-0.0014813199669056897,0.001984740938195366
0.8662233502010958,0.5001219502115622,0.9259259259259257,0.8724950498094186,0.4886207054037063,-0.0014813199669087313,0.0019845924805182848
0.8790457986382608,0.4772768586756653,0.9427609427609428,0.8724950498094196,0.48862070540370456,-0.0014813199669057018,0.0019847409381953695
0.9336505041449806,0.35840200100800756,0.8249158249158252,0.9381901821593921,0.34611663143181554,-0.0015682939836702788,0.0019842827342630297
0.9427413045634462,0.3338365896038103,0.8417508417508418,0.9381901821593917,0.34611663143181715,-0.0015682939836729613,0.001984439908505435
0.9337482180873463,0.35843804958453146,0.892255892255892,0.9381902449827613,0.346116654608582,-0.001524998934326287,0.0019845926108198646
0.9427908697108435,0.3338526942964464,0.8754208754208753,0.9381902449827614,0.3461166546085819,-0.0015249989343265188,0.0019844397756227875
0.8778251095776449,0.4766122955254808,0.16835016835016833,0.8724940989828602,0.4886201729152494,-0.002091377622227523,0.001981865962586532
0.8650725409831489,0.49945570200306494,0.18518518518518526,0.8724940989828608,0.48862017291524834,-0.0020913776222295077,0.0019820755606121815
0.9015601003099327,0.4300297533662256,0.16835016835016833,0.9081411877771954,0.4186588219568122,-0.002091377622227539,0.001981865962586534
0.9125450326110202,0.4062856912116999,0.18518518518518526,0.9081411877771959,0.4186588219568113,-0.0020913776222260087,0.001982075560612179
0.9016868554795313,0.43008818829979684,0.23569023569023573,0.9081412580837629,0.41865885436858163,-0.0020540264913605825,0.0019822812618242145
0.9126095581532159,0.4063124185663968,0.21885521885521897,0.9081412580837623,0.4186588543685824,-0.002054026491359213,0.0019820754071636416
0.8651320910294124,0.49949219431834885,0.21885521885521897,0.8724941665296974,0.48862021074329437,-0.002054026491360221,0.0019820754071636438
0.877946889251311,0.4766804954196391,0.23569023569023573,0.8724941665296974,0.48862021074329465,-0.002054026491360583,0.0019822812618242192
0.8780079897023819,0.4767116276544352,0.26936026936026924,0.8724942337690391,0.4886202483991353,-0.002016158263771243,0.00198228110905841
0.8652516609722642,0.49955915670379075,0.286195286195286,0.8724942337690398,0.48862024839913415,-0.0020161582637733965,0.001982483168531752
0.8233049783682252,0.5658479898821439,0.23569023569023573,0.8314678583052272,0.5555690610360619,-0.0020540264913576313,0.0019822812618242166
0.8378125542659749,0.5440736264773413,0.21885521885521897,0.8314678583052282,0.5555690610360604,-0.002054026491360233,0.0019820754071636464
0.837926501806388,0.5441497637896887,0.286195286195286,0.8314679223828492,0.5555691038513602,-0.0020161582637733713,0.0019824831685317556
0.823360456416857,0.5658882970438456,0.26936026936026924,0.8314679223828495,0.5555691038513602,-0.0020161582637731046,0.001982281109058408
0.8775385306980429,0.47645664349271044,0.01683501683501676,0.8724938951786605,0.48862005877941167,-0.0022002350722406566,0.0019812157034868076
0.864791722899929,0.4992935139421692,0.03367003367003352,0.8724938951786605,0.4886200587794115,-0.002200235072240829,0.0019814362113174545
0.8648544235920471,0.49933193697571615,0.06734006734006721,0.8724939632390011,0.4886200968950336,-0.0021644911154091186,0.001981436056752255
0.877666753433438,0.47652845167480984,0.08417508417508417,0.8724939632390012,0.48862009689503333,-0.002164491115408617,0.0019816529822852943
0.9012657283311638,0.4298893961517504,0.01683501683501676,0.9081409756462607,0.4186587241631118,-0.0022002350722406293,0.0019812157034868063
0.9122487589855769,0.40615383636033947,0.03367003367003352,0.908140975646261,0.41865872416311106,-0.0022002350722394063,0.0019814362113174527
0.9013991898036914,0.4299509227333183,0.08417508417508417,0.9081410464873113,0.4186587568212833,-0.002164491115408659,0.001981652982285293
0.9123166984148274,0.4061819777933549,0.06734006734006721,0.9081410464873116,0.41865875682128273,-0.0021644911154097765,0.001981436056752254
0.8653387250923585,0.49960944343050145,0.33670033670033667,0.8724943006331818,0.48862028584485406,-0.0019777824723996693,0.001982681230022345
0.8780969083456376,0.47675992510394655,0.3198653198653197,0.8724943006331822,0.4886202858448531,-0.001977782472401462,0.001982483016602945
0.8653949895927592,0.4996439223606914,0.3703703703703704,0.8724943670547982,0.4886203230427466,-0.001938908777960137,0.0019826810790839373
0.8782119690874457,0.47682436221546814,0.3872053872053871,0.8724943670547987,0.4886203230427454,-0.001938908777958152,0.001982875396550915
0.9130042061047426,0.4064900325415503,0.4377104377104377,0.9081415354067784,0.41865898221624404,-0.001899546966542192,0.0019830656193523615
0.9020166779687919,0.4302474393787202,0.42087542087542085,0.9081415354067782,0.4186589822162442,-0.0018995469665426554,0.0019828752467554835
0.9021316256729378,0.4303004309961604,0.48821548821548816,0.9081416034126325,0.4186590135673705,-0.0018597069471177287,0.001983251850653412
0.9130627209799754,0.4065142701964723,0.47138047138047146,0.9081416034126318,0.4186590135673719,-0.0018597069471154757,0.0019830654708511914
0.8655077519995049,0.4997070723427332,0.4377104377104377,0.8724944329670071,0.48862035995535724,-0.0018995469665406591,0.001983065619352365
0.8782695908755945,0.4768537219829752,0.42087542087542085,0.8724944329670077,0.4886203599553561,-0.0018995469665426406,0.0019828752467554852
0.8655617548549421,0.499740165335107,0.47138047138047146,0.8724944983034401,0.48862039654551775,-0.0018597069471159111,0.001983065470851195
0.878380026559945,0.47691556893786724,0.48821548821548816,0.8724944983034397,0.48862039654551886,-0.001859706947117656,0.00198325185065342
0.9434308068106922,0.33408051872938604,1.3973063973063973,0.9381907960633811,0.3461168579129539,-0.0010727769681157437,0.00198587323749173
0.934341164952914,0.35866689156159764,1.3804713804713806,0.9381907960633808,0.34611685791295504,-0.0010727769681174208,0.001985765724048255
0.9667169903364842,0.2590243467761228,1.3804713804713804,0.9624546826324798,0.271440293671351,-0.0010727769681159467,0.001985765724048255
0.9596191577140702,0.284257897660043,1.3973063973063973,0.9624546826324798,0.2714402936713511,-0.001072776968115721,0.0019858732374917316
0.9344386619287984,0.35870427339096095,1.4814814814814812,0.9381908865779982,0.3461168913055607,-0.0009787210860327945,0.001985975859140484
0.9435277576171327,0.3341148061622233,1.498316498316498,0.9381908865779988,0.34611689130555967,-0.000978721086031101,0.0019860739463077003
0.9344074592675238,0.3586913488254789,1.4478114478114479,0.9381908422338768,0.3461168749461507,-0.0010258781600090906,0.001985975953008748
0.9434644344322546,0.3340914450059691,1.430976430976431,0.9381908422338775,0.34611687494614934,-0.0010258781600113729,0.0019858731397623835
0.9668178395348782,0.259051411525455,1.4814814814814812,0.9624547754880249,0.27144031985932254,-0.0009787210860314843,0.0019859758591404836
0.9597177462114598,0.2842871447984078,1.498316498316498,0.9624547754880248,0.2714403198593228,-0.0009787210860311118,0.001986073946307699
0.9667849991826548,0.2590435272544455,1.4478114478114479,0.9624547299970572,0.2714403070295428,-0.0010258781600103466,0.0019859759530087458
0.9596527853356327,0.28426882393662606,1.430976430976431,0.9624547299970571,0.2714403070295434,-0.001025878160011398,0.0019858731397623844
0.47656128585237,0.877731194135257,4.882154882154882,0.4886201349530845,0.8724940311965447,0.002128202253641765,0.0019816528279366272
0.49940256007321765,0.8649805302066271,4.865319865319865,0.4886201349530863,0.8724940311965437,0.002128202253638529,0.0019818661165627973
0.3581497172260733,0.9329928866163367,4.579124579124579,0.3461164326335308,0.9381896432930608,0.0018995469665422067,0.0019828752467554935
0.3336034750237176,0.9420825592126635,4.562289562289561,0.34611643263352976,0.9381896432930611,0.0018995469665404297,0.0019830656193523762
0.3581935267951188,0.9331116376494583,4.511784511784511,0.3461164585523371,0.9381897135490557,0.0018597069471154284,0.0019832518506534124
0.3336230469378411,0.9421427953705521,4.5286195286195285,0.34611645855233486,0.9381897135490564,0.0018597069471190841,0.001983065470851193
0.40655221571245687,0.9131479056794133,4.478114478114478,0.4186590446106504,0.908141670750709,0.0018193987490845332,0.001983251703596656
0.43034030242196913,0.9022151752848901,4.461279461279461,0.4186590446106537,0.9081416707507076,0.0018193987490788916,0.001983434043684838
0.4065284948120628,0.9130906383599702,4.511784511784511,0.41865901356737173,0.908141603412632,0.0018597069471153924,0.0019832518506534076
0.4302884406027021,0.9021026783024325,4.5286195286195285,0.41865901356737306,0.9081416034126313,0.0018597069471177332,0.0019830654708511905
0.40695018916791686,0.9140383981759569,3.855218855218855,0.41865938214265536,0.908142402914224,0.0013029862275277502,0.0019852897701767356
0.4307388436884867,0.903047523653819,3.872053872053872,0.4186593821426557,0.9081424029142239,0.0013029862275283643,0.0019851591851465697
0.40696669814653524,0.9140782543760384,3.821548821548822,0.41865940649400357,0.9081424557363815,0.0012575544452270333,0.0019852896547022606
0.4307749378354695,0.9031258179110847,3.804713804713805,0.4186594064940035,0.9081424557363816,0.001257554445227149,0.001985415686553244
0.43081982421473014,0.9032174407960443,3.72053872053872,0.4186594530623974,0.9081425567510338,0.0011657526278325506,0.001985536912649206
0.407025752852283,0.9142082684955563,3.7037037037037037,0.41865945306239694,0.9081425567510343,0.0011657526278317006,0.0019856537441147125
0.4070404863123461,0.9142438382146612,3.67003367003367,0.41865947523255026,0.9081426048418145,0.001119405703619581,0.0019856536389642266
0.4308520364845123,0.9032873146107278,3.6531986531986536,0.41865947523255037,0.9081426048418146,0.0011194057036195786,0.001985765825539553
0.5006160793129859,0.8670810678777299,3.1481481481481484,0.4886211406770198,0.8724958270458515,0.0006423947881346015,0.0019866257620279686
0.4777313062684583,0.8798847614150421,3.164983164983165,0.48862114067702,0.8724958270458513,0.0006423947881341554,0.0019865613814280744
0.4777211071659219,0.8798647445492577,3.1986531986531985,0.4886211248351401,0.8724957987581392,0.0006910240510313487,0.001986561445835577
0.5005941420431538,0.8670418960638401,3.215488215488215,0.4886211248351406,0.872495798758139,0.0006910240510324206,0.0019864921916220414
0.7437962197256001,0.6697084561110583,3.5690235690235688,0.7343221230255328,0.6788003883390721,0.0010258781600099587,0.001985873139762381
0.726014690114941,0.6889698494087652,3.5521885521885523,0.7343221230255335,0.6788003883390713,0.0010258781600116088,0.0019859759530087453
0.7437693331593372,0.6696854928141148,3.6026936026936025,0.7343220868878778,0.6788003549337673,0.001072776968115822,0.001985873237491735
0.7259628015442395,0.6889218841073829,3.6195286195286194,0.7343220868878786,0.6788003549337667,0.0010727769681141651,0.0019857657240482597
0.6284988063562452,0.7761234088382838,4.915824915824916,0.6190924990738146,0.7853150912651241,0.0021644911154074533,0.0019816529822852965
0.6079352410271631,0.7922880158174159,4.9326599326599325,0.6190924990738151,0.7853150912651237,0.0021644911154063778,0.0019814360567522596
0.6874316114069297,0.7243917013116072,4.932659932659933,0.6787991554329377,0.7343207892751927,0.002164491115407895,0.001981436056752273
0.6682491672217631,0.7421733933828422,4.915824915824916,0.6787991554329376,0.7343207892751927,0.0021644911154074663,0.0019816529822853112
0.5439792778911693,0.8376638823950951,4.865319865319865,0.5555689748613728,0.8314677293356917,0.0021282022536384167,0.001981866116562799
0.5657099241375224,0.8231008383325139,4.882154882154882,0.5555689748613747,0.8314677293356902,0.0021282022536421464,0.001981652827936627
0.6286994334825607,0.7763710822784899,4.764309764309764,0.6190926433220848,0.7853152742431835,0.0020540264913602637,0.001982281261824209
0.6081304444594493,0.7925423330241959,4.781144781144781,0.6190926433220862,0.7853152742431826,0.002054026491357474,0.0019820754071636377
0.7246242854419136,0.6876522610023753,4.781144781144781,0.7343209603716035,0.6787993135928313,0.0020540264913552517,0.001982075407163636
0.7424102951184343,0.6684624063937522,4.764309764309764,0.7343209603716013,0.6787993135928334,0.002054026491359932,0.001982281261824213
0.7247249195992924,0.6877452862605922,4.713804713804714,0.7343210169625338,0.6787993659049526,0.002016158263774288,0.0019824831685317456
0.7424624396832985,0.6685069420594546,4.730639730639731,0.7343210169625333,0.6787993659049528,0.002016158263773545,0.0019822811090584036
0.668462406393752,0.7424102951184343,4.764309764309764,0.6787993135928336,0.7343209603716013,0.0020540264913599237,0.0019822812618242223
0.6876522610023753,0.7246242854419137,4.781144781144781,0.6787993135928312,0.7343209603716033,0.0020540264913552517,0.0019820754071636433
0.5447600423262179,0.838869092172172,4.0740740740740735,0.5555696234729288,0.8314687000514833,0.0014813199669088627,0.001984592480518255
0.5665563820627784,0.8243352363418804,4.057239057239058,0.5555696234729296,0.831468700051483,0.0014813199669074994,0.001984740938195338
0.6687920987085728,0.7427765879857562,4.511784511784511,0.6787995717123672,0.7343212396037431,0.0018597069471154937,0.001983251850653419
0.6879936835882878,0.724984189937509,4.5286195286195285,0.6787995717123679,0.7343212396037423,0.001859706947117156,0.0019830654708511983
0.6688323552003953,0.7428237222817398,4.478114478114478,0.6787996220448897,0.7343212940531594,0.0018193987490819012,0.001983251703596664
0.6880777705888438,0.7250751547422262,4.461279461279461,0.6787996220448897,0.7343212940531592,0.0018193987490816264,0.0019834340436848444
0.7255921273002426,0.6885703447308741,4.023569023569024,0.7343217509757779,0.678800044419814,0.0014372680773682214,0.0019847408106066925
0.7433941370120066,0.6693478850132939,4.006734006734007,0.7343217509757782,0.6788000444198137,0.0014372680773674775,0.0019848848533911365
0.7256621011955032,0.6886350279343171,3.9562289562289563,0.7343217971266238,0.6788000870812182,0.0013928543555926493,0.0019850243202751477
0.7434303946646295,0.6693788519740992,3.9730639730639736,0.7343217971266248,0.6788000870812174,0.0013928543555945792,0.0019848847286445797
0.6885703447308741,0.7255921273002426,4.023569023569024,0.6788000444198141,0.7343217509757778,0.0014372680773682214,0.0019847408106067003
0.6693478850132939,0.7433941370120069,4.006734006734007,0.6788000444198138,0.7343217509757781,0.0014372680773674718,0.001984884853391144
0.6693788519740992,0.7434303946646295,3.9730639730639727,0.6788000870812176,0.7343217971266248,0.0013928543555945738,0.0019848847286445866
0.6886350279343172,0.7256621011955032,3.9562289562289563,0.6788000870812183,0.7343217971266238,0.0013928543555926493,0.001985024320275155
0.7435321274820094,0.6694705048330856,3.872053872053872,0.7343218860789155,0.6788001693078719,0.001302986227527156,0.0019851591851465676
0.7257603020512985,0.6887282728117675,3.855218855218855,0.7343218860789151,0.678800169307872,0.001302986227526877,0.0019852897701767335
0.7435954360407552,0.6695290266628308,3.804713804713805,0.7343219287907929,0.6788002087903237,0.0012575544452268124,0.001985415686553244
0.725790806666195,0.6887587774266639,3.821548821548822,0.734321928790792,0.6788002087903248,0.0012575544452289999,0.0019852896547022584
0.7937828094932412,0.609084149487482,3.855218855218855,0.7853162642354788,0.6190934237690804,0.0013029862275250185,0.0019852897701767374
0.7775422625988524,0.6296497528881012,3.872053872053872,0.785316264235478,0.6190934237690817,0.0013029862275272656,0.001985159185146575
0.7938177105188213,0.6091095065668369,3.821548821548822,0.7853163099134468,0.6190934597786869,0.0012575544452293262,0.0019852896547022606
0.7776099675682818,0.6297031271823049,3.804713804713805,0.7853163099134457,0.619093459778688,0.0012575544452269067,0.001985415686553241
0.7250080152875098,0.6880140323595478,4.511784511784511,0.7343212396037432,0.6787995717123669,0.001859706947117141,0.001983251850653411
0.7427544326275504,0.6687699433503669,4.5286195286195285,0.7343212396037424,0.6787995717123676,0.0018597069471154761,0.00198306547085119
0.7428453974322674,0.6688540303509231,4.461279461279461,0.7343212940531594,0.6787996220448896,0.0018193987490818804,0.001983434043684835
0.7250518457962437,0.6880578628682815,4.478114478114478,0.7343212940531594,0.6787996220448896,0.0018193987490816895,0.0019832517035966576
0.7934390813539073,0.6088205483297678,4.158249158249158,0.7853159651185855,0.6190931879643367,0.0015682939836688125,0.0019844399085054303
0.7772020867798778,0.6293744310994241,4.175084175084176,0.7853159651185843,0.6190931879643381,0.0015682939836716295,0.0019842827342630236
0.7772838786387286,0.6294389106018087,4.107744107744107,0.7853160177051465,0.6190932294202386,0.0015249989343286694,0.0019845926108198937
0.7934812439866069,0.6088511812755167,4.124579124579125,0.7853160177051464,0.6190932294202386,0.0015249989343286805,0.0019844397756228183
0.7254461753336608,0.6884300128423039,4.158249158249158,0.734321606385128,0.6787999107615924,0.0015682939836680497,0.0019844399085054277
0.7432069801391603,0.6691775869596576,4.175084175084176,0.7343216063851297,0.6787999107615907,0.0015682939836715926,0.001984282734263023
0.7432834608575569,0.6692482850085386,4.107744107744107,0.7343216555569884,0.6787999562155954,0.0015249989343287067,0.001984592610819891
0.7254830268259064,0.6884668643345492,4.124579124579125,0.7343216555569897,0.6787999562155937,0.0015249989343254047,0.0019844397756228157
0.7760079980120871,0.6284078237970089,4.983164983164984,0.785315030005316,0.6190924507804763,0.0022002350722392598,0.001981215703486804
0.7922285230470735,0.6078920169994004,4.966329966329966,0.7853150300053157,0.6190924507804768,0.0022002350722400673,0.00198143621131745
0.7761234088382837,0.6284988063562453,4.915824915824916,0.785315091265124,0.6190924990738147,0.0021644911154074533,0.0019816529822853004
0.7922880158174159,0.6079352410271631,4.932659932659933,0.7853150912651236,0.6190924990738154,0.0021644911154063734,0.0019814360567522635
0.742065476739031,0.6681494101023323,4.983164983164984,0.7343207319932802,0.6787991024820821,0.0022002350722390355,0.0019812157034867993
0.7243397027236503,0.6873796128189725,4.966329966329966,0.7343207319932801,0.6787991024820821,0.0022002350722388616,0.001981436211317451
0.742173393382842,0.6682491672217631,4.915824915824916,0.7343207892751928,0.6787991554329373,0.002164491115407466,0.0019816529822853017
0.7243917013116074,0.6874316114069297,4.9326599326599325,0.7343207892751927,0.6787991554329376,0.0021644911154079034,0.0019814360567522653
0.7782151902568946,0.6301941155134707,2.1885521885521886,0.7853168959755216,0.6190939217927758,-0.0002981519950625649,0.0019869085568838406
0.7944563499067,0.6096004103573095,2.2053872053872055,0.7853168959755223,0.619093921792775,-0.0002981519950610057,0.001986938437571608
0.8398319391600605,0.5453859363249411,2.1885521885521886,0.8314695753459607,0.5555702083260006,-0.00029815199505972746,0.0019869085568838406
0.8252649560167789,0.5671960019124792,2.2053872053872055,0.8314695753459611,0.5555702083259999,-0.00029815199506104287,0.001986938437571606
0.6700306337981455,0.7441531009348631,2.895622895622895,0.6788006920218379,0.7343224515476993,0.00039706882363704733,0.0019868737834226546
0.6892847829459198,0.7263456453701166,2.912457912457912,0.6788006920218393,0.7343224515476982,0.00039706882364011676,0.001986833989322487
0.6700387824867041,0.7441626418233263,2.8619528619528616,0.67880070451185,0.7343224650593184,0.0003476541706568624,0.0019868737468639276
0.6893018037728306,0.726364058396932,2.8451178451178447,0.67880070451185,0.7343224650593182,0.00034765417065689056,0.0019869085886433844
0.6700808814399818,0.7442092017128052,2.441077441077441,0.6788007446923959,0.7343225085263887,-4.976505239628408e-05,0.001987008131880062
0.6893416576133494,0.7264058642656449,2.457912457912458,0.6788007446923969,0.7343225085263877,-4.976505239418369e-05,0.001987013119315624
0.7263186562691654,0.6892586283231683,2.0033670033670035,0.7343224192589257,0.6788006621744025,-0.0004955858260378726,0.0019867893402809827
0.7441142748987962,0.6699951454648021,1.9865319865319868,0.7343224192589253,0.678800662174403,-0.0004955858260367874,0.0019867396728365434
0.7943664753851971,0.6095309796495026,1.9360269360269362,0.7853168143953858,0.6190938574801828,-0.000544663373642521,0.0019866851375684356
0.7781381849818572,0.6301312789185146,1.952861952861953,0.785316814395386,0.6190938574801823,-0.0005446633736431191,0.00198673972355094
0.7943939812915971,0.6095526635576841,2.0033670033670035,0.7853168344417346,0.6190938732834481,-0.0004955858260354009,0.0019867893402809897
0.7781515119535207,0.6301426612276083,1.9865319865319868,0.7853168344417341,0.6190938732834488,-0.0004955858260367872,0.001986739672836543
0.7782262584591509,0.6302030503478719,2.239057239057239,0.7853169066186093,0.6190939301831083,-0.0002485747590980385,0.001986938410643423
0.7944669865412993,0.6096085444791396,2.255892255892256,0.7853169066186088,0.6190939301831092,-0.00024857475909987394,0.001986963322717415
0.7782380913532808,0.630212378649441,2.3063973063973062,0.7853169153412417,0.6190939370594781,-0.00019893494394488268,0.0019869832378368174
0.7944730862433477,0.6096129761720858,2.2895622895622894,0.7853169153412413,0.6190939370594783,-0.0001989349439442613,0.0019869633006478994
0.7441856134584014,0.6700595247771904,2.239057239057239,0.7343224867490075,0.6788007245615926,-0.0002485747590981705,0.0019869384106434218
0.726385269740931,0.6893219930550476,2.255892255892256,0.7343224867490091,0.6788007245615908,-0.00024857475910205714,0.0019869633227174097
0.7263906010760101,0.6893273243901265,2.2895622895622894,0.734322494905239,0.6788007321011322,-0.00019893494394033305,0.0019869633006478937
0.7441966779855619,0.6700697527208922,2.3063973063973062,0.7343224949052373,0.6788007321011342,-0.00019893494394468403,0.0019869832378368165
0.7939303462905967,0.6091972807798011,1.2962962962962963,0.7853163972658801,0.6190935286417949,-0.0011657526278314669,0.001985653744114732
0.777688580388498,0.6297681622850504,1.2794612794612794,0.7853163972658798,0.6190935286417957,-0.0011657526278328152,0.001985536912649224
0.7938674796770373,0.6091477207378132,1.228956228956229,0.7853163542718019,0.6190934947479964,-0.0012118060729852242,0.001985415574407629
0.7776581206913947,0.6297421472460695,1.245791245791246,0.7853163542718014,0.6190934947479971,-0.0012118060729837442,0.0019855370213523247
0.8247190129486995,0.5668203166361747,1.2962962962962963,0.8314690473274042,0.5555698555152806,-0.001165752627831551,0.0019856537441147286
0.8392641021677942,0.5450167273644478,1.2794612794612794,0.8314690473274043,0.5555698555152804,-0.0011657526278319415,0.001985536912649225
0.8246524516958504,0.5667758418289077,1.228956228956229,0.8314690018065853,0.5555698250992418,-0.001211806072985338,0.0019854155744076342
0.8392299478314014,0.5449957975601879,1.2457912457912457,0.8314690018065856,0.5555698250992418,-0.0012118060729851639,0.0019855370213523256
0.7437565527959492,0.6696727124507268,1.3804713804713804,0.7343220868878786,0.6788003549337667,-0.0010727769681158196,0.0019857657240482515
0.725976545245787,0.6889336223374213,1.3973063973063973,0.7343220868878779,0.6788003549337674,-0.001072776968114189,0.0019858732374917277
0.726001547250226,0.6889586243418601,1.430976430976431,0.7343221230255328,0.6788003883390721,-0.0010258781600115965,0.00198587313976238
0.7438084413666507,0.669720677752109,1.4478114478114479,0.7343221230255335,0.6788003883390713,-0.001025878160009964,0.001985975953008743
0.7943664753851971,0.6095309796495026,3.0639730639730636,0.7853168143953858,0.6190938574801825,0.0005446633736425335,0.001986685137568426
0.7781381849818572,0.6301312789185146,3.047138047138047,0.785316814395386,0.6190938574801823,0.0005446633736431415,0.0019867397235509305
0.8396614302200756,0.5452750014246732,3.215488215488215,0.8314694137832328,0.5555701003732368,0.000691024051032421,0.001986492191622042
0.8251028583084531,0.5670843836183339,3.1986531986531985,0.8314694137832329,0.5555701003732364,0.0006910240510328656,0.0019865614458355763
0.839690004051588,0.5452935828113304,3.164983164983165,0.8314694407408038,0.5555701183857095,0.0006423947881345546,0.001986561381428073
0.825130261429424,0.5671032435210548,3.1481481481481484,0.8314694407408036,0.5555701183857096,0.0006423947881341571,0.0019866257620279708
0.8397246065925009,0.5453167034899863,3.0976430976430973,0.8314694658119417,0.555570135137708,0.0005936038012790773,0.001986685192904894
0.8251471084929113,0.5671154836291503,3.114478114478114,0.8314694658119416,0.5555701351377085,0.0005936038012796583,0.001986625702125662
0.8798939896022118,0.4777369613088287,3.1481481481481484,0.8724958270458507,0.48862114067702106,0.0006423947881341578,0.001986625762027968
0.8670714244486281,0.500611165740438,3.164983164983165,0.8724958270458506,0.4886211406770214,0.0006423947881346015,0.001986561381428074
0.8799125440251533,0.4777464152595181,3.114478114478114,0.8724958533540493,0.48862115541032025,0.0005936038012798772,0.00198662570212566
0.8671077343489952,0.5006315002616876,3.0976430976430973,0.872495853354049,0.48862115541032064,0.0005936038012790084,0.001986685192904896
0.7439772993929932,0.6698725750838287,1.7003367003367005,0.7343222815945903,0.6788005349188,-0.000787748478949972,0.0019864182232935024
0.7261692755415722,0.6891176497034651,1.6835016835016836,0.7343222815945892,0.6788005349188012,-0.0007877484789526104,0.0019863392753768625
0.7439968652096782,0.6698892858699548,1.7340067340067338,0.7343223086609773,0.6788005599387107,-0.0007394793475190979,0.00198641815007611
0.7262070357468908,0.6891525548782248,1.7508417508417506,0.7343223086609774,0.6788005599387105,-0.0007394793475194295,0.001986492260469391
0.4775929427365126,0.8796302346466374,1.4814814814814812,0.48862100747298576,0.8724955891929312,-0.0009787210860326852,0.0019859758591404836
0.5004739268210142,0.8668351525308539,1.498316498316498,0.4886210074729855,0.8724955891929314,-0.0009787210860331436,0.0019860739463077007
0.6888562955531311,0.7258951203496466,1.2962962962962963,0.6788002842947413,0.7343220104710121,-0.0011657526278320153,0.001985653744114734
0.6695964978972727,0.7436719682079421,1.2794612794612794,0.6788002842947408,0.7343220104710123,-0.00116575262783286,0.001985536912649231
0.6888835194375217,0.7259223442340375,1.3299663299663298,0.6788003202406786,0.734322049357108,-0.0011194057036195736,0.001985653638964238
0.6696487257825527,0.7437284680159252,1.3468013468013467,0.6788003202406789,0.7343220493571074,-0.0011194057036205069,0.0019857658255395694
0.7253882050164636,0.688374974328318,0.7912457912457914,0.7343215563039842,0.6787998644670563,-0.001611194215619448,0.001984282869592254
0.7431470519049208,0.6691236025306816,0.7744107744107743,0.7343215563039833,0.6787998644670574,-0.0016111942156171082,0.001984121395871525
0.7433396233142536,0.6692988273872237,0.9427609427609428,0.7343217037700556,0.6788000007832931,-0.0014813199669068645,0.0019847409381953634
0.725538379442185,0.6885193660845236,0.9259259259259257,0.7343217037700537,0.6788000007832947,-0.0014813199669106417,0.001984592480518282
0.7433770143320242,0.6693307623333115,0.9764309764309765,0.734321750975778,0.678800044419814,-0.001437268077367496,0.0019847408106066816
0.7256105406267052,0.6885860711973608,0.9932659932659932,0.7343217509757783,0.6788000444198137,-0.0014372680773682312,0.001984884853391124
0.7434821033870893,0.6694254367165106,1.0774410774410776,0.7343218421761241,0.6788001287245478,-0.0013480899825505618,0.0019850241984969907
0.72571202585979,0.6886824324503972,1.0942760942760945,0.7343218421761234,0.6788001287245484,-0.0013480899825490432,0.0019851593038329963
0.7434469882272848,0.6693954455367545,1.043771043771044,0.7343217971266239,0.6788000870812182,-0.0013928543555945746,0.0019850243202751564
0.725644256869343,0.6886197874399986,1.026936026936027,0.7343217971266249,0.6788000870812174,-0.0013928543555926432,0.0019848847286445884
0.6085991110402363,0.7931528894480987,0.6228956228956228,0.6190930149034748,0.7853157455919288,-0.0017374185215138652,0.0019836120089693106
0.6291805767547227,0.7769650156385995,0.6397306397306396,0.6190930149034743,0.785315745591929,-0.0017374185215145983,0.0019837861329507645
0.6086706756057777,0.7932436686667187,0.6902356902356903,0.6190930591678157,0.7853158017409789,-0.0016957671298957137,0.0019839559407698235
0.6292181424001001,0.7770089993581907,0.6734006734006733,0.619093059167816,0.7853158017409787,-0.0016957671298963777,0.001983785991112678
0.5445101503086157,0.8384816813160461,0.6397306397306396,0.555569394490394,0.8314683573549013,-0.0017374185215120854,0.001983786132950763
0.5662657558550249,0.8239098723433109,0.6228956228956228,0.5555693944903951,0.8314683573549009,-0.0017374185215138394,0.0019836120089693062
0.5445403728889173,0.8385310000847007,0.6734006734006733,0.5555694342128797,0.8314684168038023,-0.001695767129896925,0.0019837859911126777
0.5663299773554904,0.8240059866109944,0.6902356902356903,0.5555694342128805,0.831468416803802,-0.001695767129895616,0.0019839559407698274
-0.20764388266996314,0.9768635080336073,0.08417508417508417,-0.1950898650143868,0.9807829829003355,-0.0021644911154089044,0.001981652982285281
-0.18198303380062772,0.9819306150127779,0.06734006734006721,-0.1950898650143884,0.9807829829003353,-0.002164491115406365,0.0019814360567522427
-0.2076607662535003,0.9769338332202328,0.11784511784511786,-0.1950898802097101,0.9807830592923843,-0.002128202253639531,0.0019816528279366194
-0.182011231270699,0.9820723732676454,0.13468013468013462,-0.195089880209713,0.9807830592923839,-0.0021282022536440195,0.001981866116562792
-0.10438635748501772,0.9932178933693215,0.08417508417508417,-0.11753712212488245,0.9930661306785222,-0.0021644911154077894,0.0019816529822853
-0.13035709718474423,0.9901073600899145,0.06734006734006721,-0.11753712212488153,0.9930661306785225,-0.002164491115406364,0.0019814360567522614
-0.13037408550693685,0.9902508936993955,0.13468013468013462,-0.11753713127971051,0.9930662080272916,-0.0021282022536440576,0.0019818661165628085
-0.1043920319206762,0.9932899939105603,0.11784511784511786,-0.11753713127971253,0.9930662080272913,-0.0021282022536408237,0.0019816528279366394
-0.1820603098593998,0.9823472143270209,0.26936026936026924,-0.19508992550497073,0.9807832870070332,-0.0020161582637751745,0.0019822811090583967
-0.2077315236064717,0.9772754995199658,0.286195286195286,-0.19508992550497162,0.9807832870070328,-0.002016158263773716,0.0019824831685317417
-0.2077472321617774,0.9773409303617692,0.3198653198653197,-0.19508994045581032,0.9807833621699747,-0.0019777824724000683,0.0019824830166029353
-0.18208654490109707,0.9824791067882233,0.33670033670033667,-0.19508994045580988,0.9807833621699751,-0.0019777824723993358,0.0019826812300223332
-0.13043846844379303,0.990726169591914,0.3703703703703704,-0.11753717652450882,0.9930665902986551,-0.0019389087779584611,0.0019826810790839425
-0.10445109817913133,0.9938348470142361,0.3872053872053871,-0.11753717652450883,0.9930665902986552,-0.0019389087779584325,0.001982875396550919
-0.13042814555802143,0.9906609934562377,0.33670033670033667,-0.11753716757658951,0.9930665146980663,-0.0019777824723992794,0.0019826812300223515
-0.10443559789026803,0.9937038857348753,0.3198653198653197,-0.11753716757658908,0.9930665146980662,-0.0019777824723999056,0.0019824830166029527
-0.05230489079712563,0.9979388425396305,0.3872053872053871,-0.03925974196296693,0.9992271580045009,-0.0019389087779584256,0.0019828753965509143
-0.026151163894446952,0.9989337584600864,0.3703703703703704,-0.03925974196296702,0.999227158004501,-0.0019389087779582974,0.001982681079083938
-0.026151163894446952,0.9988677698956804,0.33670033670033667,-0.03925973897418496,0.9992270819349178,-0.001977782472399785,0.001982681230022346
-0.05229971339403396,0.99780706883154,0.3198653198653197,-0.03925973897418503,0.9992270819349178,-0.001977782472399894,0.0019824830166029466
-0.05228905357165089,0.9976030483065216,0.21885521885521897,-0.03925973293991309,0.9992269283524438,-0.0020540264913600074,0.0019820754071636433
-0.026145884376258546,0.9986648225454574,0.23569023569023573,-0.03925973293991294,0.9992269283524436,-0.0020540264913597836,0.0019822812618242184
-0.026145884376258546,0.9987333971848255,0.26936026936026924,-0.03925973596549031,0.9992270053585299,-0.0020161582637738145,0.0019822811090584092
-0.05229443387584556,0.9977399861925299,0.286195286195286,-0.039259735965490546,0.9992270053585297,-0.0020161582637734394,0.001982483168531752
-0.13040161211641663,0.9904597188260641,0.23569023569023573,-0.11753714951097803,0.993066362062479,-0.0020540264913600846,0.001982281261824224
-0.10441421063086011,0.9935007094774604,0.21885521885521897,-0.11753714951097807,0.9930663620624792,-0.002054026491360004,0.001982075407163649
-0.13041233955344145,0.9905274491978284,0.26936026936026924,-0.11753715856905643,0.9930664385937971,-0.0020161582637752296,0.0019822811090584157
-0.10443031837207963,0.993636803095865,0.286195286195286,-0.11753715856905526,0.9930664385937972,-0.0020161582637734164,0.0019824831685317586
-0.0523245535833026,0.9982826712628746,0.5723905723905726,-0.039259753659144477,0.9992274556921379,-0.0017786325196837986,0.001983433898221139
-0.026163452362282232,0.9993405101881163,0.5892255892255893,-0.03925975365914495,0.9992274556921379,-0.0017786325196845318,0.001983612152692885
-0.026163452362282232,0.9993997487288658,0.6228956228956228,-0.039259756503729516,0.9992275280916498,-0.0017374185215108836,0.0019836120089693097
-0.05232920138564204,0.9984009657317223,0.6397306397306396,-0.03925975650373018,0.9992275280916498,-0.0017374185215098625,0.0019837861329507645
-0.130487610115105,0.9910999617888606,0.5723905723905726,-0.1175372115409354,0.9930668861509487,-0.0017786325196823892,0.001983433898221147
-0.10449015192382301,0.9942071160947776,0.5892255892255893,-0.11753721154093631,0.9930668861509486,-0.001778632519683816,0.001983612152692892
-0.13050152486687636,0.9912175269329708,0.6397306397306396,-0.11753722005715006,0.9930669581040937,-0.0017374185215132728,0.0019837861329507723
-0.10449479972616245,0.9942661720228756,0.6228956228956228,-0.11753722005715225,0.9930669581040937,-0.0017374185215098675,0.001983612008969318
0.18218190190168385,0.9830026137393119,0.6228956228956228,0.1950900275638293,0.980783800091552,-0.0017374185215132648,0.0019836120089693115
0.20786926305114553,0.9779229024674022,0.6397306397306396,0.19509002756382904,0.9807838000915521,-0.0017374185215136677,0.0019837861329507645
0.2078827660954247,0.977979146694634,0.6734006734006733,0.19509004151251105,0.9807838702163122,-0.001695767129897578,0.001983785991112681
0.18220445349365463,0.9831159882482369,0.6902356902356903,0.19509004151251017,0.9807838702163123,-0.0016957671298961933,0.001983955940769828
0.10449937888863829,0.9942950837168931,0.6397306397306396,0.11753722005714899,0.993066958104094,-0.0017374185215098701,0.001983786132950764
0.13049922820579882,0.9911883450871103,0.6228956228956228,0.11753722005715116,0.9930669581040937,-0.0017374185215132724,0.0019836120089693093
0.1305128150172889,0.9913031394777744,0.6902356902356903,0.11753722846090903,0.9930670291070837,-0.0016957671298961528,0.0019839559407698283
0.10450391715243679,0.9943527478258639,0.6734006734006733,0.11753722846090665,0.993067029107084,-0.0016957671298998746,0.0019837859911126807
0.2587903431312788,0.9658446456162698,0.7239057239057239,0.2714400787125219,0.962453920445957,-0.0016536888302787977,0.001983955800960628
0.284003904486455,0.9587626118120789,0.7407407407407408,0.27144007871251885,0.9624539204459577,-0.0016536888302835897,0.001984121533510321
0.2840209025356246,0.9588149264281726,0.7744107744107743,0.2714400975423608,0.9624539872115411,-0.001611194215617765,0.0019841213958715236
0.2588201822728333,0.9659504472315216,0.7912457912457914,0.2714400975423629,0.9624539872115405,-0.001611194215621159,0.0019842828695922562
0.18221978547575748,0.9831988167982301,0.7407407407407406,0.19509005526048864,0.980783939332059,-0.0016536888302812929,0.001984121533510323
0.20790040920718014,0.9780622378024365,0.7239057239057239,0.195090055260487,0.9807839393320593,-0.0016536888302787552,0.0019839558009606285
0.18222839044175285,0.983253146415317,0.7744107744107743,0.1950900687939172,0.9807840073691987,-0.0016111942156188015,0.001984121395871526
0.2079218552655603,0.9781700544186817,0.7912457912457914,0.1950900687939156,0.9807840073691988,-0.0016111942156212024,0.0019842828695922562
0.35843010994256264,0.9337237823819674,0.8754208754208753,0.3461166546085819,0.9381902449827614,-0.0015249989343263002,0.001984439775622788
0.33386252666649635,0.9428146071519684,0.892255892255892,0.346116654608582,0.9381902449827613,-0.001524998934326492,0.0019845926108198655
0.25868460890048056,0.9654440450242493,0.48821548821548816,0.271439980474922,0.9624535721217126,-0.0018597069471170604,0.001983251850653415
0.2838709259845518,0.9583082393976378,0.47138047138047146,0.27143998047492324,0.9624535721217123,-0.0018597069471190295,0.001983065470851192
0.02620651201387871,1.0010210918106586,2.8619528619528616,0.03925981338653235,0.9992289758556004,0.00034765417065467814,0.0019868737468639232
0.052413483584643296,0.9999972743732165,2.8451178451178447,0.03925981338653072,0.9992289758556004,0.0003476541706572048,0.001986908588643377
0.0524143372625028,1.000008121378878,2.8114478114478114,0.03925981401407556,0.9992289918276831,0.0002981519950612827,0.0019869085568838406
0.026207365691738205,1.0010428193630763,2.7946127946127945,0.039259814014076064,0.9992289918276831,0.0002981519950620707,0.0019869384375716067
-0.052413483584643185,0.9999972743732165,2.8451178451178447,-0.03925981338653073,0.9992289758556004,0.00034765417065721853,0.0019869085886433783
-0.02620651201387859,1.0010210918106586,2.8619528619528616,-0.03925981338653236,0.9992289758556004,0.0003476541706546782,0.001986873746863921
0.02620835186313766,1.0010846731686869,2.542087542087542,0.03925981571045344,0.9992290350033973,4.976505239359082e-05,0.0019870131193156348
0.05241663794288163,1.0000541083622219,2.558922558922559,0.039259815710454705,0.9992290350033973,4.9765052395547226e-05,0.0019870081318800713
0.05241644060926138,1.0000516010008418,2.592592592592593,0.0392598155646597,0.9992290312926667,9.951757633084082e-05,0.0019870081392590107
